ply
format ascii 1.0
comment Created by Open3D
element vertex 1623
property double x
property double y
property double z
end_header
0.0551309 -0.0951411 0.305808
0.0554207 -0.0925886 0.3075
0.0598992 0.0523244 -0.0501973
0.0574522 0.0402238 -0.0199874
0.0473836 0.0334579 0.0026093
0.0472056 0.0609805 -0.066278
0.0461509 0.0652456 -0.0709757
0.0459544 0.0818569 -0.108295
0.0450246 0.0663736 -0.0747237
0.0462796 0.0946198 -0.138438
0.0438456 0.0480831 -0.0254717
0.0420038 0.0716722 -0.0843908
0.0361952 0.0298625 0.0221823
0.0354599 0.0342662 0.0199218
0.0313429 0.0333483 0.0266333
0.0245367 0.0329186 0.0308519
0.010163 -0.0763117 0.305186
0.0121966 0.0378256 0.031961
0.00728016 -0.069004 0.309309
-0.002483 -0.0673472 0.306377
-0.0035475 0.0483633 0.0374821
-0.00825379 -0.0605552 0.307722
-0.00737269 0.047699 0.0387369
-0.0123638 -0.0615801 0.304669
-0.0186725 -0.0576537 0.30293
-0.0195712 0.0518398 0.055745
-0.0303489 -0.0491562 0.300632
-0.0527243 0.0483056 0.100077
-0.0813177 -0.0220008 0.295417
-0.0949498 0.0454772 0.15121
-0.10008 -0.0110557 0.292414
-0.122342 0.00490919 0.286805
-0.125516 0.050168 0.179994
-0.131655 0.0510832 0.184468
-0.139743 0.0540918 0.189924
-0.14305 0.0548821 0.191536
-0.15979 0.0291898 0.273674
-0.169475 0.060822 0.209917
-0.171977 0.0366832 0.268174
-0.187249 0.0699474 0.21825
-0.190728 0.0470453 0.261558
-0.190057 0.0653226 0.21522
-0.193126 0.0661448 0.215905
-0.218103 0.0667222 0.252255
-0.219588 0.0778092 0.223166
-0.224484 0.0719775 0.24964
-0.239438 0.0852855 0.232407
0.371762 -0.126098 -0.0210028
0.373078 -0.122034 -0.028323
0.36975 -0.136507 0.00194408
0.370581 -0.132856 -0.00548932
0.369687 -0.128331 -0.018843
0.362502 -0.156772 0.0532273
0.360056 -0.10435 -0.0668308
0.357329 -0.0978745 -0.076505
0.323866 -0.161047 0.119747
0.318476 -0.0520034 -0.136784
0.30752 -0.16637 0.141779
0.30207 -0.164427 0.148252
0.298219 -0.164421 0.150072
0.293494 -0.025519 -0.168678
0.269339 -0.162226 0.178927
0.256669 -0.157942 0.188745
0.262939 0.0041106 -0.188833
0.258507 0.00126507 -0.190627
0.24805 0.0079429 -0.194593
0.240166 0.0153138 -0.195982
0.236259 0.0171397 -0.196948
0.1934 -0.145771 0.244921
0.18637 -0.14792 0.248147
0.186744 0.0447405 -0.202036
0.163411 0.0550707 -0.197616
0.163672 0.0576333 -0.196055
0.113188 0.0752501 -0.187485
0.10852 0.0785396 -0.184937
0.0986532 0.0818006 -0.182458
0.0913574 0.0851022 -0.180528
0.084272 0.0881024 -0.179531
0.059349 -0.10225 0.300476
0.055502 0.0967592 -0.165816
0.051096 0.0470937 -0.0408663
0.0443244 -0.0937257 0.306384
0.0451228 0.0296179 0.0037014
0.0373445 -0.0913206 0.307026
0.0423989 0.0433876 -0.0282509
0.0437382 0.0866331 -0.12828
0.0394818 0.0286988 0.0146921
0.0397383 0.0273731 0.0144718
0.0426368 0.0471262 -0.0278678
0.0419267 0.0764779 -0.0966332
0.0300553 0.022611 0.0362808
0.026008 0.0275608 0.0331843
0.00505432 -0.072905 0.305285
-0.0113321 -0.0638129 0.30389
-0.0125192 -0.0650307 0.302189
-0.0134847 0.0471192 0.0420771
-0.0171344 0.0464738 0.0440359
-0.0281534 -0.0577734 0.2968
-0.0323554 0.0481287 0.0613137
-0.0435211 -0.0463794 0.297857
-0.040518 0.0474978 0.0688343
-0.066943 0.0441558 0.111614
-0.0643248 0.0440196 0.108744
-0.078356 -0.0307911 0.294611
-0.107475 -0.0145276 0.290389
-0.121629 -0.00367274 0.287542
-0.125743 0.0468955 0.173787
-0.143368 0.0518926 0.188342
-0.158399 0.0222281 0.274502
-0.157862 0.0233311 0.27467
-0.163006 0.0252346 0.27245
-0.165679 0.0308373 0.270961
-0.192419 0.0644296 0.214591
-0.197468 0.0463051 0.257431
-0.234991 0.0785829 0.241686
-0.236964 0.0807074 0.224423
-0.236501 0.080469 0.224129
-0.239202 0.0795015 0.238187
-0.239128 0.0818423 0.225983
0.366166 -0.142076 0.00878407
0.364214 -0.150254 0.0277121
0.365299 -0.143081 0.00947111
0.354404 -0.163097 0.07426
0.355932 -0.162182 0.0673091
0.358212 -0.100378 -0.0737906
0.349626 -0.0945754 -0.0826237
0.334635 -0.165333 0.107106
0.323158 -0.163045 0.117987
0.322045 -0.0629025 -0.124925
0.310431 -0.16485 0.135271
0.305148 -0.165407 0.145943
0.256077 -0.000444243 -0.191614
0.247798 -0.159629 0.194907
0.2464 0.00527327 -0.195512
0.240569 -0.161409 0.20167
0.244094 0.0106576 -0.195558
0.241753 0.0103062 -0.196542
0.236402 0.0147119 -0.197629
0.233189 0.0147422 -0.198916
0.213689 -0.154984 0.225848
0.200602 -0.151988 0.237215
0.173454 0.0502068 -0.199982
0.114361 -0.130075 0.282746
0.115929 0.0709944 -0.190568
0.106796 -0.12555 0.285974
0.0560733 0.0341418 -0.022138
0.058834 0.0447667 -0.0455269
0.0477136 0.0359643 -0.0255913
0.0512498 0.0494564 -0.0571772
0.0467393 0.0267577 -0.00323822
0.0449297 0.0432481 -0.0402676
0.0467077 0.0506536 -0.0622593
0.0478775 0.0920869 -0.163854
0.0447517 0.0576884 -0.0698511
0.0370825 -0.0963222 0.301488
0.035408 0.0135053 0.0386792
0.0393441 0.0660711 -0.0890753
0.0406405 0.0730939 -0.0944534
0.040181 0.0717498 -0.100116
0.0301826 -0.0905774 0.305126
0.0265178 -0.0918069 0.301013
0.0241839 -0.0872536 0.305329
0.0270097 0.0238415 0.0355833
0.02699 0.0178888 0.0413812
0.0173383 0.0273235 0.0332668
0.00754499 -0.0814071 0.298658
0.00546207 -0.0803757 0.298468
-0.0356933 -0.0543229 0.296451
-0.0381154 0.042974 0.0584513
-0.0405976 0.044045 0.0618671
-0.0487866 0.0458904 0.0762953
-0.0633032 -0.0414843 0.295205
-0.0604125 0.0431765 0.0864676
-0.0915832 0.0417738 0.128033
-0.0964694 0.0419835 0.138478
-0.123434 -0.00650827 0.286946
-0.140202 0.00499058 0.280866
-0.139737 0.00723498 0.280965
-0.152503 0.0120894 0.27695
-0.153218 0.0138916 0.276699
-0.155293 0.0533484 0.193155
-0.157517 0.0509273 0.189894
-0.205715 0.0674004 0.216355
-0.216146 0.0569484 0.25
-0.215876 0.0707146 0.217823
-0.223228 0.0743396 0.21988
-0.246803 0.0799473 0.229874
0.363176 -0.150399 0.0244825
0.361331 -0.150923 0.0204707
0.363355 -0.146558 0.0138463
0.360878 -0.119557 -0.0470444
0.360944 -0.115081 -0.0535372
0.36056 -0.11159 -0.0589845
0.35867 -0.114597 -0.058471
0.356189 -0.10372 -0.0742064
0.356178 -0.102367 -0.0755782
0.350925 -0.165891 0.0710145
0.343276 -0.169508 0.0865656
0.340694 -0.168296 0.0955196
0.337176 -0.0862533 -0.0911908
0.33116 -0.17094 0.104913
0.335327 -0.0911788 -0.0896111
0.325981 -0.171122 0.108463
0.31653 -0.17052 0.118367
0.320649 -0.166612 0.116887
0.310197 -0.0583018 -0.136272
0.306381 -0.170367 0.134585
0.301866 -0.168935 0.146257
0.305255 -0.0490168 -0.146761
0.289392 -0.0325141 -0.16723
0.287311 -0.0315596 -0.16911
0.281824 -0.0287355 -0.173614
0.266819 -0.167265 0.178224
0.264595 -0.014324 -0.185545
0.251624 -0.165519 0.189451
0.247957 -0.16533 0.192993
0.249199 -0.160817 0.193138
0.247189 0.00104172 -0.195426
0.233215 0.0107865 -0.199823
0.218785 0.0206931 -0.202888
0.211737 -0.160426 0.225245
0.207997 0.0225282 -0.205689
0.206815 0.0254218 -0.205083
0.190567 -0.156511 0.242993
0.19603 0.0305953 -0.206854
0.18003 -0.153836 0.249666
0.181811 0.0380638 -0.21014
0.175702 -0.151222 0.253749
0.177707 0.0405357 -0.208787
0.169766 -0.149248 0.257934
0.162423 0.0473401 -0.203114
0.157615 0.0492531 -0.201942
0.146288 0.0560456 -0.197798
0.146218 0.052902 -0.199882
0.142499 0.0536221 -0.199612
0.134793 0.0613634 -0.195146
0.128559 0.0650744 -0.193416
0.127366 0.0595991 -0.197132
0.107343 -0.130698 0.283802
0.0838707 0.0839243 -0.185561
0.0807183 0.0856834 -0.193691
0.0812972 0.0866356 -0.198752
0.0769766 0.0876561 -0.192463
0.0643946 -0.111908 0.294579
0.0607109 -0.111028 0.294948
0.0633917 0.091791 -0.18821
0.0651417 0.0921374 -0.193025
0.0632901 0.0930454 -0.178267
0.0616515 0.0922111 -0.189847
0.0581583 0.0923003 -0.182078
0.0536252 0.0284615 -0.0182483
0.0483524 0.0304528 -0.0259954
0.046056 0.0392609 -0.0453705
0.0420719 0.0522323 -0.0704785
0.0404961 0.0196486 0.0151349
0.0417633 0.0608165 -0.0806821
0.0414058 0.0735122 -0.114045
0.03653 0.0144028 0.0346542
0.0370853 0.0127986 0.0335028
0.0382325 0.0636283 -0.0901844
0.0242253 -0.0919086 0.299034
0.0182482 -0.0914543 0.295089
0.0163196 -0.0883993 0.297297
-0.000755104 0.0308912 0.030405
-0.00804866 -0.0778397 0.294537
-0.00713513 0.0370049 0.0297549
-0.0165666 -0.0694853 0.295802
-0.0164243 0.0390541 0.034302
-0.0218574 0.0395105 0.0362173
-0.0263467 0.04215 0.0431353
-0.0367198 0.0423947 0.0564874
-0.0428313 0.0444047 0.0641027
-0.0547335 -0.0498048 0.29417
-0.0633983 0.0423748 0.087719
-0.0700117 -0.0434681 0.29364
-0.080515 -0.0369883 0.293082
-0.0775121 0.0396549 0.101552
-0.080668 0.0408871 0.113316
-0.141219 -0.000598172 0.280538
-0.140253 -0.00133197 0.280873
-0.17339 0.0217229 0.267045
-0.203101 0.04753 0.254083
-0.203701 0.0628437 0.212856
-0.22232 0.0572282 0.246824
0.358452 -0.152737 0.0175001
0.359147 -0.148734 0.00929313
0.358804 -0.149052 0.00919182
0.358161 -0.146995 0.00303955
0.359022 -0.124033 -0.0429692
0.35414 -0.162964 0.0443181
0.35538 -0.125167 -0.046211
0.350412 -0.166389 0.0605786
0.353407 -0.108205 -0.0740096
0.346893 -0.168797 0.0741569
0.343601 -0.170876 0.0779421
0.338791 -0.173632 0.0853121
0.339691 -0.173149 0.0839916
0.340335 -0.09814 -0.0861737
0.320551 -0.0812874 -0.106593
0.317481 -0.0768484 -0.11268
0.311298 -0.0637223 -0.131073
0.30224 -0.177298 0.13587
0.299486 -0.0527305 -0.147211
0.296151 -0.0480279 -0.15344
0.288767 -0.0341342 -0.166615
0.278195 -0.174836 0.164611
0.280714 -0.173192 0.161932
0.279113 -0.175018 0.163396
0.280462 -0.0353792 -0.170714
0.279776 -0.0326871 -0.172625
0.269912 -0.174074 0.171796
0.27293 -0.0263798 -0.178667
0.274628 -0.0243329 -0.178661
0.26642 -0.0211135 -0.183116
0.254122 -0.170064 0.185822
0.248103 -0.00444721 -0.194814
0.238551 -0.168153 0.201201
0.236306 0.00107389 -0.19976
0.184451 -0.158681 0.245189
0.180412 -0.15866 0.247447
0.181793 -0.155947 0.247728
0.172966 0.0406146 -0.209223
0.159095 0.0438812 -0.206242
0.140858 -0.144333 0.26801
0.114313 -0.13784 0.27975
0.109242 0.0643857 -0.195339
0.102308 0.0704086 -0.191512
0.0983425 0.072383 -0.190537
0.092826 0.0724518 -0.19334
0.0918248 0.074626 -0.191767
0.0764481 -0.120032 0.291132
0.0855229 0.0813705 -0.193423
0.0673347 0.0932628 -0.201981
0.0623645 0.0943391 -0.201959
0.0496611 0.040409 -0.0517191
0.0461473 0.0375685 -0.0497407
0.04367 0.0891935 -0.170961
0.0362321 -0.102839 0.29444
0.0415691 0.016114 0.0115433
0.0410823 0.0489927 -0.068916
0.0414836 0.0523614 -0.071942
0.0405803 0.0400804 -0.0372736
0.0391692 0.0602008 -0.0857367
0.0311009 0.00269705 0.0450154
0.0368566 0.063734 -0.0950927
0.0365056 0.0788658 -0.132682
0.0364739 0.0847692 -0.143881
0.0250113 0.00415693 0.0476737
0.0261147 0.0116244 0.0457483
0.000366557 0.0246324 0.0315558
-0.0223724 0.0366239 0.0338378
-0.0326565 -0.0653212 0.291925
-0.0407122 0.0398406 0.0559169
-0.0490324 -0.0569709 0.292739
-0.0466069 0.040638 0.0599981
-0.0567931 0.0423953 0.0746571
-0.0716349 0.0405317 0.0905022
-0.0720222 0.0400676 0.0874271
-0.08008 0.039215 0.10548
-0.091893 -0.0349913 0.290316
-0.0947242 -0.032329 0.289789
-0.0979046 0.0396663 0.123968
-0.105984 -0.0284847 0.287551
-0.119513 -0.0207817 0.286662
-0.124636 0.0403957 0.154357
-0.140904 -0.00605231 0.280628
-0.146052 0.0419906 0.174879
-0.173482 0.0164481 0.266624
-0.190185 0.0285105 0.259322
-0.192409 0.0321004 0.258674
-0.234656 0.0727668 0.216221
0.3544 -0.135091 -0.0305838
0.350397 -0.166359 0.0573711
0.336655 -0.17594 0.082204
0.329812 -0.178064 0.096209
0.322553 -0.175352 0.106957
0.301915 -0.178311 0.137556
0.304748 -0.176828 0.129238
0.306878 -0.0648008 -0.13304
0.294781 -0.055932 -0.147532
0.280915 -0.179413 0.159152
0.272271 -0.176788 0.16879
0.272791 -0.0297155 -0.177489
0.253001 -0.171798 0.18593
0.248083 -0.17498 0.188971
0.255124 -0.0167528 -0.189218
0.255156 -0.0133386 -0.190008
0.247026 -0.0110571 -0.194413
0.23426 -0.000340127 -0.200604
0.224625 -0.168749 0.208602
0.209826 -0.169413 0.223104
0.212729 0.0132238 -0.206823
0.19662 -0.168922 0.234552
0.178006 -0.161045 0.248093
0.177041 0.034378 -0.215619
0.178719 0.0327518 -0.21646
0.166636 -0.159767 0.255435
0.164925 -0.158983 0.25638
0.152007 -0.151808 0.261986
0.129011 -0.144694 0.273042
0.132702 0.0510003 -0.202156
0.110534 -0.140635 0.279134
0.120517 0.0579355 -0.198779
0.108779 -0.136521 0.281183
0.100417 -0.135983 0.282088
0.0934894 -0.134645 0.283117
0.0904266 0.0771617 -0.209671
0.0904427 0.0753795 -0.211176
0.0832576 0.0813727 -0.211396
0.0770631 0.0846113 -0.212107
0.061994 0.0938868 -0.20985
0.0621563 0.0934927 -0.213413
0.0423611 0.00757506 0.014435
0.0426457 0.00557059 0.0144884
0.039224 0.00431135 0.0288909
0.0397169 0.00394893 0.0274969
0.0403531 0.035657 -0.0433154
0.0393249 0.0411147 -0.065243
0.0411337 0.081765 -0.156778
0.0352073 0.0471113 -0.0786507
0.0346465 0.0554541 -0.0914985
0.0357264 0.0653895 -0.118082
0.0376827 0.0731188 -0.125667
0.0142393 0.00677405 0.0440551
0.013236 0.00794109 0.0429373
0.00757423 0.0140057 0.0374254
0.00164655 0.0184171 0.0338718
-0.0135142 0.0321802 0.0290303
-0.0126307 0.0293432 0.027745
-0.0366288 0.0365066 0.0401461
-0.0374621 0.0361873 0.040781
-0.0495227 0.0390958 0.0588334
-0.0628982 -0.0549461 0.291532
-0.0701079 -0.0535211 0.291089
-0.0785903 0.0378211 0.083502
-0.0766411 0.0387004 0.0859886
-0.0853571 -0.0405519 0.291365
-0.0842392 0.038092 0.103505
-0.104135 0.0377756 0.118337
-0.123899 -0.021459 0.285469
-0.130961 0.0364955 0.146434
-0.181514 0.0199488 0.262366
-0.185822 0.0225181 0.260527
-0.20081 0.0317327 0.252946
-0.198365 0.0529245 0.203134
-0.22581 0.0504823 0.242661
-0.233855 0.0684413 0.211754
-0.248614 0.0733921 0.213354
-0.256284 0.0699117 0.224742
0.352224 -0.157926 0.0145564
0.354252 -0.146926 -0.0061329
0.351637 -0.150858 -0.00324493
0.352547 -0.135978 -0.0316471
0.343849 -0.171507 0.0523397
0.345677 -0.128857 -0.0512364
0.346576 -0.121181 -0.0643798
0.34057 -0.107753 -0.0848498
0.328763 -0.102141 -0.0897464
0.311898 -0.179448 0.114648
0.313706 -0.0860848 -0.108452
0.306833 -0.0795971 -0.12004
0.299187 -0.0674462 -0.136249
0.282282 -0.181288 0.156596
0.264384 -0.178904 0.173629
0.269347 -0.0338198 -0.177466
0.250307 -0.177582 0.185319
0.253929 -0.0183661 -0.189378
0.225516 -0.174326 0.205454
0.200614 0.0167812 -0.21067
0.186639 -0.168581 0.240162
0.18756 0.0232697 -0.215567
0.182726 0.028498 -0.217223
0.169822 -0.16079 0.253585
0.168201 -0.160507 0.254447
0.155906 0.0387852 -0.211677
0.154023 0.0396622 -0.210749
0.151085 0.0415823 -0.208683
0.140823 -0.153864 0.264213
0.129377 -0.151466 0.270626
0.124082 0.0528116 -0.201688
0.0979658 -0.137188 0.281629
0.0974845 0.0628392 -0.197872
0.0883153 -0.137899 0.281487
0.0750025 0.0824419 -0.219061
0.063653 -0.12574 0.286134
0.0686536 0.088494 -0.22208
0.0674267 0.0901976 -0.218037
0.0662675 0.0903037 -0.225677
0.0629715 0.0927557 -0.220119
0.0634892 0.0921231 -0.230164
0.0608224 0.0935341 -0.226024
0.0430764 0.00291707 0.00544549
0.042799 0.002663 0.0033816
0.0423354 0.0182374 -0.0164695
0.0421988 0.0184212 -0.0208169
0.044409 0.020998 -0.022898
0.043622 0.0228287 -0.026807
0.0436695 0.0231828 -0.0270178
0.0437327 0.0948562 -0.209593
0.0364022 -0.00440729 0.0366817
0.038373 -0.00265691 0.0322033
0.040205 0.0115678 -0.00659485
0.0412531 0.01688 -0.0161904
0.0393172 -0.0016533 0.0296187
0.0353431 0.0414762 -0.0700419
0.0342725 0.0473446 -0.0815799
0.0249951 -0.006611 0.0469415
0.0322608 0.0781358 -0.143312
0.00633292 -0.0931493 0.288459
0.00331698 0.0161899 0.0352919
-0.00392413 -0.0907246 0.286846
-0.00738411 -0.0858218 0.288804
-0.00668 0.021745 0.0292363
-0.0227993 -0.0785568 0.287121
-0.0227537 0.0278406 0.0283767
-0.0244902 0.0298498 0.0295863
-0.0315791 0.0326088 0.0317562
-0.0619676 0.0370265 0.06006
-0.0647828 0.0377076 0.064873
-0.0815523 -0.0493959 0.290377
-0.0792083 0.0362359 0.0757432
-0.0820574 0.0364524 0.0810018
-0.0939606 0.0350721 0.0964029
-0.110602 0.0363123 0.114965
-0.121957 0.0368127 0.141182
-0.141062 0.0370084 0.160697
-0.139809 0.0359852 0.155055
-0.176147 0.00830053 0.264017
-0.182548 0.0156863 0.261061
-0.183428 0.0465822 0.189188
-0.197624 0.0228468 0.253959
-0.195189 0.050643 0.198747
-0.204296 0.0531848 0.202881
-0.202972 0.0519596 0.201002
-0.236012 0.0520131 0.236276
-0.234745 0.063219 0.205395
-0.242516 0.0684567 0.208168
-0.261974 0.0727322 0.215837
0.34883 -0.162529 0.0216515
0.349047 -0.161848 0.0195103
0.350037 -0.142845 -0.0230637
0.342887 -0.171461 0.0421127
0.345202 -0.128791 -0.0518907
0.340404 -0.174065 0.0497937
0.338088 -0.110228 -0.0848303
0.334966 -0.178238 0.0729489
0.329259 -0.106581 -0.0887196
0.320343 -0.183085 0.100336
0.301305 -0.0732883 -0.129907
0.300336 -0.0734147 -0.130669
0.291848 -0.186083 0.143572
0.296753 -0.0709256 -0.135746
0.295824 -0.0692107 -0.137604
0.296866 -0.0686543 -0.137161
0.294059 -0.0659 -0.140906
0.289432 -0.0627701 -0.146239
0.284667 -0.18479 0.152091
0.27477 -0.0462171 -0.168551
0.270082 -0.0377823 -0.175513
0.252133 -0.0243639 -0.188573
0.242981 -0.180126 0.192979
0.245794 -0.180367 0.189169
0.246047 -0.0235136 -0.192015
0.218467 -0.177858 0.209741
0.223408 -0.00328163 -0.204973
0.213261 0.00130501 -0.208576
0.206513 0.00741317 -0.21037
0.202609 0.0125973 -0.211036
0.189755 -0.172842 0.23683
0.174659 0.0260934 -0.221658
0.160679 -0.164898 0.255342
0.168109 0.0330005 -0.217798
0.165313 0.0330878 -0.217905
0.143419 -0.158231 0.261308
0.13379 -0.154124 0.267729
0.124983 0.0484532 -0.204496
0.0624103 0.0931804 -0.237506
0.060005 0.0944631 -0.238417
0.0617894 0.0932391 -0.235739
0.0573585 0.0949361 -0.234665
0.054511 0.097934 -0.242775
0.0439859 0.0908154 -0.202836
0.0407306 0.0971976 -0.216684
0.0351324 0.0228998 -0.0348983
0.0357259 0.104962 -0.240697
0.0334067 0.0485577 -0.0859762
0.0322667 0.0589218 -0.112838
0.0340193 0.0759311 -0.157802
0.0353294 0.0850144 -0.181219
0.0297119 0.0734623 -0.145598
-0.000317373 0.00932792 0.0367805
-0.00361035 0.0135038 0.0334513
-0.00733807 0.0161217 0.0304435
-0.0195857 -0.0855081 0.284383
-0.0235397 0.0274298 0.0281234
-0.0330063 -0.0802129 0.285424
-0.0711527 0.0351525 0.0612879
-0.0890002 0.0341907 0.0801002
-0.0926565 -0.0468396 0.288228
-0.119063 -0.0326388 0.283906
-0.120466 0.0347144 0.129722
-0.120872 0.0341154 0.120311
-0.129331 0.0351417 0.137146
-0.126876 0.0348353 0.134667
-0.144498 0.0352069 0.155541
-0.149506 -0.0133218 0.277206
-0.151115 0.036489 0.16287
-0.157636 0.0377399 0.165402
-0.209925 0.051149 0.198003
-0.213807 0.0311467 0.24343
-0.223075 0.056591 0.202368
-0.231164 0.0591302 0.20213
-0.242022 0.0503704 0.232047
-0.25847 0.070179 0.204646
-0.270328 0.0735115 0.207774
0.345506 -0.166106 0.0260483
0.346613 -0.160404 0.00716908
0.345584 -0.145632 -0.0240489
0.339913 -0.173968 0.0446753
0.340438 -0.133762 -0.0477027
0.339571 -0.132952 -0.0500417
0.334188 -0.12587 -0.0686996
0.326746 -0.183154 0.0858279
0.326063 -0.183883 0.0843796
0.319809 -0.186096 0.0952804
0.314184 -0.103894 -0.0958
0.316531 -0.100458 -0.0966106
0.307047 -0.0880082 -0.114142
0.306224 -0.0868205 -0.11588
0.295475 -0.190485 0.133356
0.292342 -0.190259 0.138974
0.297313 -0.0772129 -0.130781
0.295309 -0.0764226 -0.133375
0.283276 -0.189082 0.151182
0.289376 -0.0688467 -0.142775
0.288343 -0.0676773 -0.144373
0.280346 -0.19027 0.154094
0.280703 -0.0620641 -0.154199
0.280771 -0.0573678 -0.156671
0.271158 -0.0451975 -0.171754
0.264223 -0.186475 0.169563
0.252444 -0.185922 0.179824
0.256 -0.0308453 -0.184405
0.178924 -0.174556 0.242545
0.175088 -0.174327 0.24512
0.165596 0.031218 -0.219789
0.137872 -0.160791 0.262674
0.132921 -0.158631 0.266765
0.114338 0.0469851 -0.206742
0.109861 0.0508319 -0.204097
0.0948804 -0.145441 0.277093
0.0880763 0.0803127 -0.254916
0.0813723 0.0739592 -0.224192
0.0796221 0.0763584 -0.222021
0.0773093 0.0781825 -0.22549
0.0738594 0.0866458 -0.242933
0.0755065 0.0896357 -0.255486
0.0752051 0.089772 -0.256514
0.0628558 0.105084 -0.282822
0.0619303 0.0980555 -0.256298
0.0578388 0.100176 -0.255479
0.0598253 0.106934 -0.275694
0.0480169 -0.122858 0.285212
0.0520258 0.101841 -0.251482
0.0534672 0.105824 -0.265793
0.054409 0.109198 -0.273856
0.0552161 0.109711 -0.275684
0.0506961 0.103702 -0.255886
0.0418307 -0.0084823 0.0159251
0.0486443 0.0995117 -0.240434
0.0482902 0.112832 -0.279021
0.0444181 0.106478 -0.257035
0.0421835 0.105065 -0.251042
0.0422451 0.110238 -0.265748
0.0361496 0.0098793 -0.0173503
0.0366883 0.0167156 -0.0293849
0.0301197 -0.0128868 0.0396497
0.0320313 0.0206042 -0.0392105
0.0312858 0.029395 -0.0636121
0.0298724 0.0612003 -0.128066
0.031459 0.102045 -0.23388
0.0285267 0.056056 -0.119923
0.0277677 0.0646242 -0.137506
0.0276544 0.0696577 -0.154475
0.0155602 -0.106651 0.281351
-0.0118832 0.0146719 0.0278866
-0.0162692 -0.0893815 0.283231
-0.0195104 -0.0880517 0.283249
-0.017217 0.0210269 0.0257791
-0.0236088 0.024005 0.0260858
-0.0328277 -0.0833125 0.284215
-0.0492392 -0.0757213 0.286077
-0.0565058 0.0317673 0.0471292
-0.0571533 0.0310272 0.0433975
-0.0712078 0.0343307 0.057709
-0.0955571 -0.0501888 0.286866
-0.0906836 0.0342247 0.0846323
-0.0965414 0.0335082 0.090248
-0.12332 -0.0347617 0.282539
-0.140787 0.0334737 0.130903
-0.143975 0.0346061 0.147591
-0.147511 0.0343274 0.143385
-0.15061 0.0354718 0.158736
-0.154274 0.0354617 0.156834
-0.171302 0.039888 0.161824
-0.188957 0.0441779 0.183303
-0.219614 0.0515631 0.195234
-0.226571 0.0537238 0.19626
-0.247831 0.0631262 0.198722
0.34382 -0.161142 0.00325194
0.338873 -0.17406 0.0395111
0.340538 -0.169667 0.0263315
0.340869 -0.160676 -0.00269481
0.340367 -0.14379 -0.0332849
0.338018 -0.148313 -0.0280324
0.335354 -0.13326 -0.0541366
0.334059 -0.132205 -0.0576326
0.329171 -0.12695 -0.0715635
0.329776 -0.125669 -0.0729881
0.326097 -0.18446 0.0795382
0.321241 -0.116209 -0.0871118
0.312915 -0.189685 0.0971326
0.316032 -0.188636 0.0949422
0.320396 -0.112248 -0.0893526
0.309524 -0.189255 0.102851
0.310372 -0.108263 -0.0952296
0.309013 -0.103872 -0.0999051
0.294174 -0.082603 -0.130694
0.296839 -0.080487 -0.128905
0.287081 -0.194558 0.140401
0.285136 -0.194021 0.143947
0.281366 -0.195408 0.14738
0.281815 -0.0649925 -0.151872
0.264561 -0.192793 0.166077
0.247608 -0.194056 0.180821
0.238173 -0.188766 0.192838
0.220474 -0.187491 0.202693
0.217648 -0.184895 0.206718
0.220191 -0.182019 0.205582
0.20293 -0.186006 0.2226
0.212093 -0.00608492 -0.209549
0.196193 0.00452387 -0.215463
0.170528 -0.178855 0.245863
0.165262 -0.178184 0.248018
0.162998 0.0259529 -0.224211
0.151001 -0.171426 0.253734
0.0888717 0.0715142 -0.251719
0.0888819 0.0736581 -0.25394
0.0887285 0.0775961 -0.260457
0.0905231 0.0637739 -0.220462
0.0877595 0.0664756 -0.228461
0.0873874 0.069177 -0.238771
0.08678 0.0827977 -0.260265
0.0853727 0.0877728 -0.271375
0.0846677 0.0860042 -0.266633
0.0833854 0.0915736 -0.285146
0.0828655 0.0804041 -0.245664
0.0812807 0.0741995 -0.231405
0.0764735 0.0946815 -0.276789
0.0749262 0.0838905 -0.240084
0.0732589 0.0920125 -0.263744
0.0680575 0.0995409 -0.282212
0.0562499 -0.134755 0.278893
0.047938 -0.127728 0.281866
0.0489652 0.111935 -0.285558
0.0409374 -0.00538151 0.000301411
0.0390899 0.112799 -0.276887
0.0299439 0.0217889 -0.0480314
0.0297464 0.0228743 -0.052544
0.0320905 0.106566 -0.248842
0.0268598 -0.0144095 0.0401428
0.0290347 0.0170858 -0.0412519
0.0311083 0.0291615 -0.0635154
0.0291179 0.0311005 -0.067875
0.0314034 0.106697 -0.249851
0.0312561 0.11107 -0.26502
0.0259424 0.0404005 -0.0877896
0.0248313 0.0426235 -0.0951468
0.0270358 0.0688131 -0.153851
0.0269752 0.0877431 -0.203029
0.022404 0.0327722 -0.0812195
0.0241521 0.0401418 -0.0917045
0.0235928 0.0490867 -0.114128
0.0252034 0.0653605 -0.147058
0.0229122 0.0614228 -0.14619
0.0245572 0.0816518 -0.18924
0.024816 0.0879904 -0.205145
0.0141523 -0.111653 0.27765
0.0234179 0.102896 -0.235944
0.0228243 0.105522 -0.249782
0.0151152 -0.0100627 0.0440678
0.0115401 -0.00790666 0.0439527
-0.0127321 -0.096444 0.280724
-0.00914997 0.00717621 0.0308368
-0.019243 0.0176615 0.0237364
-0.0213961 0.0184997 0.0230447
-0.0386962 -0.0849738 0.28336
-0.0572556 0.0306201 0.0328502
-0.0940526 -0.0549317 0.286663
-0.087955 0.0334325 0.0696116
-0.097981 -0.0521959 0.285922
-0.0959946 0.0326342 0.0800998
-0.110127 -0.0492121 0.282947
-0.111875 -0.0449801 0.282924
-0.111323 0.0328764 0.0946426
-0.118118 -0.0395804 0.282464
-0.118753 0.0330702 0.103241
-0.126285 0.0330697 0.120088
-0.13053 -0.0380711 0.280282
-0.136927 -0.0335085 0.279954
-0.148701 -0.0280081 0.276959
-0.156859 0.035256 0.143353
-0.172268 0.0393079 0.156804
-0.175657 0.0400128 0.157576
-0.182285 0.0413217 0.165694
-0.195206 0.00637357 0.253461
-0.216321 0.0497076 0.190072
-0.216675 0.0496796 0.18905
-0.222548 0.0296682 0.238213
-0.220053 0.0503796 0.189571
-0.234456 0.0393595 0.234132
-0.246523 0.0609513 0.195775
-0.264008 0.0563126 0.220444
-0.272283 0.0656173 0.21467
-0.276756 0.0732809 0.201582
-0.281904 0.0737651 0.204769
0.334808 -0.172561 0.022427
0.332087 -0.180047 0.0474423
0.332443 -0.174968 0.0245718
0.33078 -0.132301 -0.0610483
0.327661 -0.138864 -0.0527283
0.326176 -0.130533 -0.0687303
0.327945 -0.126548 -0.0732083
0.326945 -0.123573 -0.078099
0.317287 -0.189186 0.0896792
0.318787 -0.118674 -0.0864084
0.31253 -0.191174 0.0939854
0.291287 -0.195671 0.13063
0.288363 -0.197312 0.132307
0.286018 -0.196069 0.139399
0.269322 -0.194621 0.161433
0.274359 -0.0654002 -0.159005
0.266978 -0.19625 0.162247
0.271802 -0.0626999 -0.162461
0.267459 -0.0549377 -0.171235
0.260612 -0.196177 0.167672
0.252401 -0.193727 0.176144
0.252793 -0.0423743 -0.181802
0.237727 -0.193552 0.190787
0.24251 -0.0348907 -0.190348
0.224716 -0.189706 0.199155
0.230345 -0.0256114 -0.199243
0.221111 -0.0175104 -0.205357
0.213053 -0.190286 0.208744
0.208551 -0.190858 0.213198
0.206261 -0.00535598 -0.211874
0.204749 -0.00496942 -0.21246
0.192757 0.00159189 -0.217245
0.168864 -0.179691 0.246165
0.175135 0.0132703 -0.225024
0.16984 0.018522 -0.225553
0.139701 0.0276593 -0.222702
0.135088 0.0320214 -0.219231
0.133137 0.0323579 -0.219184
0.10692 -0.159082 0.267648
0.111043 0.0433826 -0.211462
0.10252 -0.15534 0.270285
0.0907497 -0.152496 0.271134
0.0818597 -0.146596 0.274993
0.09305 0.0563813 -0.21186
0.073772 -0.142321 0.277072
0.0668655 -0.139816 0.277504
0.0361445 -0.0159608 0.0266288
0.0320324 -0.0188571 0.0279311
0.0334883 -0.00451354 -0.00716894
0.0284536 0.00601879 -0.0272037
0.0279688 0.00847426 -0.0319887
0.0318355 0.11094 -0.28247
0.0288568 0.111433 -0.274286
0.0241589 0.0210782 -0.0612404
0.0247209 0.0226339 -0.0630442
0.0240266 0.0645531 -0.154132
0.0212861 0.0405923 -0.0995815
0.0209084 0.0447441 -0.110173
0.0214731 0.0471743 -0.115325
0.021106 0.0505365 -0.12626
0.0231068 0.0622333 -0.147781
0.0214589 0.0796217 -0.188084
0.023092 0.0814937 -0.190542
0.0225333 0.106573 -0.257141
0.025195 0.110298 -0.274711
0.0132747 -0.113962 0.27619
0.0196134 0.0712678 -0.175784
0.0134005 -0.0133717 0.040777
0.0012283 -0.106706 0.27763
0.00701191 -0.00715879 0.0423956
-0.0331713 -0.0921972 0.28117
-0.0388005 0.0243848 0.0221098
-0.0454067 0.0257007 0.021206
-0.0662072 0.0307853 0.030189
-0.0735054 0.0321393 0.0444229
-0.0819957 0.0333463 0.052452
-0.0856742 0.0340634 0.0516432
-0.0942624 0.0335107 0.0667147
-0.0940865 0.0337949 0.0641511
-0.0972523 0.0332864 0.0704785
-0.0985901 0.0379794 0.0493159
-0.100051 0.0337528 0.069066
-0.103708 0.0360926 0.0621712
-0.106955 0.0335029 0.0763786
-0.13667 0.0325165 0.117818
-0.134818 0.0326887 0.107854
-0.142846 -0.0363355 0.277987
-0.144056 -0.0346028 0.277926
-0.141484 0.0325807 0.123051
-0.143504 0.032554 0.125666
-0.149273 -0.0269305 0.276792
-0.15762 0.0337017 0.138838
-0.161691 -0.0192763 0.271993
-0.179874 0.0399459 0.153974
-0.184366 0.0396826 0.149832
-0.187418 0.00148514 0.256373
-0.187006 0.0405624 0.151262
-0.19608 0.0437159 0.157493
-0.197661 0.042696 0.172219
-0.201974 0.00702515 0.249861
-0.209852 0.046639 0.17683
-0.213533 0.0480613 0.178006
-0.217511 0.0494929 0.180472
-0.227346 0.0528628 0.173181
-0.230825 0.0531644 0.179623
-0.230875 0.0536737 0.173797
-0.234503 0.0540772 0.185263
-0.242722 0.0583267 0.193027
-0.263144 0.0656836 0.185775
-0.26599 0.0664794 0.184085
-0.266817 0.0670133 0.185489
-0.277008 0.0714355 0.194236
-0.285008 0.0682411 0.207503
0.333955 -0.171528 0.0163618
0.329886 -0.175153 0.0187072
0.331289 -0.156685 -0.0193044
0.327281 -0.183157 0.0458645
0.329049 -0.145901 -0.0410685
0.32512 -0.185997 0.0548361
0.324673 -0.133553 -0.0652074
0.320146 -0.189275 0.0687843
0.318122 -0.126584 -0.0802297
0.306658 -0.194729 0.094342
0.303319 -0.193866 0.103344
0.303489 -0.107897 -0.107022
0.297397 -0.196132 0.110806
0.293198 -0.0927084 -0.127352
0.266082 -0.0598667 -0.171121
0.249891 -0.198834 0.175809
0.247969 -0.0465307 -0.183362
0.242682 -0.196546 0.185467
0.244799 -0.0426732 -0.186737
0.204088 -0.192376 0.217794
0.200045 -0.190965 0.222833
0.19836 -0.00576107 -0.215109
0.182436 0.00218175 -0.22233
0.175061 -0.18699 0.240489
0.163963 0.0158732 -0.22684
0.153067 -0.176557 0.250973
0.158529 0.0167632 -0.227027
0.143212 -0.177722 0.251139
0.133084 -0.173056 0.255862
0.123353 0.0344931 -0.220034
0.121698 0.0338951 -0.222009
0.115435 0.038497 -0.217745
0.0963412 -0.15947 0.265396
0.0892314 -0.155173 0.268202
0.0961009 0.0494527 -0.217839
0.0943651 0.0529 -0.222895
0.0918855 0.0595788 -0.23548
0.0908705 0.0624526 -0.240469
0.0904528 0.0636973 -0.248241
0.0801617 0.0875714 -0.287954
0.0730433 0.0892096 -0.289179
0.0704918 0.0927432 -0.28905
0.0572111 -0.140011 0.275595
0.0455884 -0.13583 0.276135
0.0358533 -0.0125374 0.00480224
0.0359572 -0.00944061 -0.000347296
0.0368824 0.107707 -0.293958
0.0320156 -0.0113911 -0.000528533
0.0256008 0.00804097 -0.034668
0.0265639 0.011103 -0.0373939
0.0217697 0.00863368 -0.0402182
0.0224497 0.0247107 -0.0698454
0.0193439 0.0260523 -0.0772639
0.0197069 0.0328191 -0.0869207
0.0201367 0.0378792 -0.0963178
0.0200088 0.0467471 -0.118587
0.0189677 0.0574183 -0.148812
0.0206936 0.107689 -0.269257
0.0174943 0.102239 -0.245698
0.0118824 0.0920785 -0.221678
0.0137636 0.0970591 -0.231
-0.00987661 0.00164154 0.0154367
-0.00971143 0.00119358 0.0172714
-0.0112057 0.00276807 0.0219044
-0.0134951 0.00511011 0.018488
-0.0188829 0.0102318 0.0158555
-0.0451838 -0.0904036 0.281179
-0.044846 0.0238162 0.0159329
-0.0501704 0.0257035 0.0179499
-0.0757681 0.0320393 0.0299853
-0.103054 -0.0590073 0.284202
-0.113457 0.0368793 0.0671085
-0.124879 0.0319436 0.0929224
-0.123187 0.0338571 0.0845314
-0.144835 0.0324295 0.116533
-0.146897 0.0322238 0.128344
-0.162417 -0.0262654 0.27129
-0.162783 0.0331565 0.137245
-0.185112 0.039907 0.150165
-0.185725 0.0383574 0.144777
-0.193552 0.0418018 0.149572
-0.19888 0.00196828 0.251637
-0.19501 0.0429431 0.152637
-0.207244 0.0474465 0.157545
-0.208226 0.0471036 0.152155
-0.227727 0.0537033 0.167226
-0.23559 0.0261614 0.231092
-0.238716 0.0298815 0.229954
-0.246264 0.0578015 0.175041
-0.25034 0.0384874 0.225562
-0.275344 0.0696331 0.185526
-0.285393 0.0625117 0.207772
-0.284115 0.0665389 0.208365
-0.290071 0.0650227 0.204414
0.329189 -0.172305 0.00575118
0.329194 -0.168885 -0.00308327
0.325622 -0.181521 0.0322581
0.325906 -0.166364 -0.0105755
0.326761 -0.163588 -0.0134405
0.326659 -0.161365 -0.0165893
0.324119 -0.153971 -0.0327959
0.324563 -0.148922 -0.0409698
0.322662 -0.146384 -0.046434
0.322473 -0.145458 -0.0479401
0.321812 -0.143752 -0.0510973
0.321508 -0.134819 -0.0662968
0.317972 -0.134536 -0.0701951
0.313894 -0.12515 -0.0838766
0.307228 -0.119278 -0.0916136
0.304809 -0.120577 -0.0928702
0.304184 -0.115593 -0.0969925
0.302085 -0.108969 -0.108982
0.300548 -0.104728 -0.114011
0.283309 -0.0836969 -0.141722
0.275666 -0.202621 0.144607
0.276033 -0.203048 0.141972
0.278994 -0.0846365 -0.146624
0.275762 -0.0795382 -0.1538
0.270707 -0.205192 0.149282
0.262398 -0.201837 0.161808
0.265879 -0.0717684 -0.165358
0.251009 -0.052757 -0.180238
0.240114 -0.203337 0.184357
0.237727 -0.0430282 -0.190166
0.229292 -0.199391 0.192613
0.22552 -0.0330356 -0.199313
0.210209 -0.196558 0.208408
0.214519 -0.0239553 -0.207565
0.208573 -0.195267 0.210706
0.20552 -0.197662 0.212799
0.199442 -0.192946 0.222371
0.194874 -0.192897 0.225888
0.199804 -0.0104265 -0.214768
0.186206 -0.193941 0.231484
0.179383 -0.194797 0.235453
0.169341 0.0127017 -0.226525
0.15497 -0.181278 0.24824
0.141588 -0.177952 0.251152
0.129498 -0.17472 0.255128
0.0924099 0.0573549 -0.247648
0.0915197 0.0583789 -0.252133
0.0711667 0.0859352 -0.294318
0.0704288 0.0880496 -0.293876
0.0574075 0.0964696 -0.302764
0.0301187 -0.0204313 0.0183064
0.0274511 -0.0207648 0.0152732
0.0312261 0.106917 -0.293896
0.0231814 -0.00908648 -0.00989789
0.0192752 0.00702481 -0.0408487
0.0209994 0.0139416 -0.050759
0.0115431 -0.122182 0.272614
0.0152953 0.0425267 -0.118382
0.0163106 0.105336 -0.271621
0.00975091 -0.0182776 0.0334911
0.0122754 0.0647819 -0.173644
0.0101038 0.0973611 -0.245156
0.0102244 0.0900056 -0.219148
-0.000535925 -0.115043 0.274988
-0.00411299 -0.0077206 0.021162
-0.0157111 -0.109843 0.277309
-0.0380612 -0.094738 0.280334
-0.0383242 0.0202783 0.0071949
-0.0475465 -0.0936065 0.280216
-0.0436772 0.0204603 -0.00167663
-0.0516395 -0.0916494 0.280691
-0.0539132 0.0244593 0.00941576
-0.0632785 -0.0867293 0.281822
-0.0609188 0.0272019 0.0141633
-0.0683708 -0.0801966 0.283353
-0.0678528 0.0289871 0.0143326
-0.0684878 0.0294206 0.0156702
-0.0794225 0.0324306 0.02428
-0.0869132 0.0340476 0.0278004
-0.0986594 -0.0709749 0.283997
-0.118218 -0.0571867 0.281257
-0.132545 -0.0465929 0.2779
-0.13643 0.0324947 0.0877265
-0.139904 -0.0466087 0.276315
-0.138561 0.0350289 0.0841707
-0.140276 0.0348081 0.0852031
-0.141883 0.0328481 0.0972586
-0.142337 0.0329514 0.0973117
-0.143705 0.0396302 0.0778894
-0.152768 0.0315217 0.117655
-0.156152 -0.0340913 0.273457
-0.159067 -0.0336082 0.27222
-0.155647 0.0305759 0.12153
-0.155321 0.031965 0.114967
-0.160568 0.0301709 0.126386
-0.162903 0.0303217 0.127418
-0.171703 -0.0245469 0.268077
-0.175857 -0.0196241 0.266285
-0.18251 0.0359674 0.139171
-0.193467 -0.00907027 0.253474
-0.196815 0.0412396 0.144716
-0.201216 0.0435486 0.147465
-0.223945 0.0529967 0.153759
-0.226517 0.0534084 0.151047
-0.228221 0.0212058 0.233855
-0.237146 0.0557644 0.164184
-0.243411 0.0280214 0.227307
-0.241435 0.0571236 0.160105
-0.244671 0.058059 0.158094
-0.24776 0.0585456 0.157874
-0.252831 0.0588717 0.173102
-0.256053 0.0385861 0.223199
-0.268622 0.0639314 0.174603
-0.277685 0.0671558 0.175481
-0.281934 0.0556627 0.209678
-0.290656 0.0720836 0.186289
0.321548 -0.182882 0.0249875
0.322458 -0.167854 -0.0119487
0.321328 -0.157152 -0.0297743
0.321081 -0.15755 -0.0293032
0.31582 -0.150534 -0.0467572
0.316507 -0.14954 -0.047598
0.315673 -0.137121 -0.0684194
0.312528 -0.193969 0.0613629
0.312578 -0.1939 0.0596828
0.312162 -0.13171 -0.07861
0.29891 -0.119982 -0.100757
0.299714 -0.11468 -0.106087
0.292637 -0.104788 -0.123144
0.287872 -0.202098 0.11155
0.282363 -0.203549 0.123045
0.282775 -0.0955664 -0.136438
0.280696 -0.0940267 -0.13908
0.28179 -0.0878628 -0.141289
0.274288 -0.205695 0.136168
0.270978 -0.206848 0.14365
0.263171 -0.0652863 -0.172628
0.256092 -0.0596988 -0.17796
0.232194 -0.0406554 -0.19315
0.219273 -0.202672 0.198106
0.225169 -0.0380014 -0.19762
0.199192 -0.199719 0.219131
0.206989 -0.022777 -0.211289
0.193367 -0.202114 0.223652
0.195457 -0.199491 0.222798
0.198657 -0.0138616 -0.215362
0.190043 -0.199025 0.227278
0.18496 -0.19672 0.231491
0.1631 -0.193434 0.241324
0.165367 0.00540514 -0.227914
0.1524 -0.187767 0.244806
0.133047 0.0218096 -0.227273
0.135475 0.0204299 -0.227056
0.111852 -0.171706 0.257278
0.102816 0.0411987 -0.226946
0.0973914 0.0461723 -0.236391
0.0865366 -0.162564 0.261085
0.0867031 0.0643521 -0.268813
0.0727305 -0.153085 0.267662
0.0657141 0.087896 -0.301875
0.0542916 -0.143303 0.272998
0.0496582 -0.145625 0.270767
0.0237992 -0.0232619 0.0215882
0.0265031 0.106312 -0.293088
0.0190308 -0.0240121 0.0259617
0.0196441 -0.00457476 -0.021773
0.0193455 -0.00321078 -0.025009
0.017403 -0.00654197 -0.0205832
0.0188139 -0.00222691 -0.0276855
0.0142592 0.024356 -0.0827041
0.016854 0.0573476 -0.155629
0.0185581 0.106821 -0.280457
0.0184576 0.104457 -0.291759
0.0118818 0.028891 -0.0909647
0.00886103 -0.0202157 0.0301926
0.0128953 0.103327 -0.272341
0.00551541 0.0338028 -0.10082
0.0098277 0.0974757 -0.249014
0.00222883 -0.0176861 0.0253441
0.00253777 0.0328886 -0.0987254
0.0041811 0.0845412 -0.212618
0.0033016 0.0936977 -0.238704
-0.00862095 -0.119903 0.275333
-0.000390087 0.0793291 -0.203697
-0.00787915 -0.115716 0.275688
-0.00319374 0.0911701 -0.231677
-0.0155979 -0.111443 0.277133
-0.0210475 0.00673611 0.000665681
-0.0308027 -0.109129 0.279141
-0.0360916 0.0161655 -0.00775309
-0.0536249 -0.094485 0.279983
-0.0568314 -0.0919215 0.280593
-0.0677582 0.0263355 0.00491804
-0.0789621 0.0311488 0.0136868
-0.0856002 -0.0811962 0.2827
-0.101117 -0.0750403 0.283216
-0.121472 0.0417847 0.0391641
-0.12622 -0.0565176 0.278944
-0.125945 0.042829 0.0427932
-0.136546 0.044653 0.050462
-0.14412 0.0336717 0.0904304
-0.148971 -0.0443548 0.274805
-0.150885 0.0370232 0.0853549
-0.149975 0.0428197 0.0704051
-0.153688 -0.0411776 0.273804
-0.152623 0.0349683 0.0971804
-0.152234 0.0425359 0.0722658
-0.159262 0.0365271 0.0968989
-0.163578 0.0336085 0.112574
-0.169642 0.0320107 0.123858
-0.1695 0.0387157 0.103478
-0.17394 0.032928 0.127274
-0.17608 0.0335825 0.127794
-0.174274 0.0403526 0.104358
-0.176288 0.0424748 0.0995199
-0.183806 -0.019778 0.261292
-0.191595 0.0417726 0.120202
-0.191653 0.0428873 0.117616
-0.200009 -0.00897605 0.250634
-0.199891 0.0405712 0.139087
-0.20763 -0.00358247 0.246673
-0.222402 0.0506157 0.144465
-0.230012 0.0165417 0.232496
-0.24353 0.0216475 0.226813
-0.244265 0.0249005 0.226623
-0.249842 0.0576523 0.162678
-0.254168 0.0577489 0.168206
-0.254811 0.0585331 0.157583
-0.264602 0.0368355 0.219189
-0.272007 0.0447914 0.215532
-0.276478 0.0506865 0.212917
0.322481 -0.181105 0.0196644
0.321485 -0.175324 0.000336429
0.316496 -0.186011 0.0268434
0.317252 -0.158583 -0.0317775
0.315617 -0.155667 -0.0387699
0.315091 -0.192189 0.0530506
0.31458 -0.152344 -0.0451748
0.311455 -0.14257 -0.0639918
0.306242 -0.197446 0.0697131
0.309466 -0.13743 -0.0735904
0.303731 -0.134174 -0.0820597
0.301125 -0.127362 -0.0910911
0.296651 -0.11472 -0.110811
0.294724 -0.116927 -0.110653
0.296745 -0.110194 -0.11534
0.274499 -0.0903942 -0.149032
0.274721 -0.0835807 -0.153288
0.267717 -0.210137 0.139894
0.264987 -0.0787262 -0.164407
0.258255 -0.208315 0.158697
0.248866 -0.208938 0.168898
0.234793 -0.211203 0.183412
0.223284 -0.207804 0.192827
0.225547 -0.0419861 -0.195686
0.214861 -0.203624 0.201608
0.219217 -0.0366738 -0.2016
0.208463 -0.202494 0.207448
0.204123 -0.0233993 -0.212553
0.183059 -0.203502 0.230566
0.181765 -0.0120116 -0.222285
0.16302 0.00230969 -0.228701
0.139419 0.0160759 -0.228144
0.13345 0.0180433 -0.229365
0.123003 0.0234593 -0.233739
0.0914076 -0.166314 0.258771
0.0869043 0.0592885 -0.267981
0.0882466 0.0576802 -0.264975
0.0851232 0.0653117 -0.276766
0.0654449 -0.156146 0.264515
0.0780126 0.0731157 -0.292689
0.0747963 0.0780212 -0.294562
0.0329647 -0.142777 0.268135
0.0303298 -0.139225 0.268891
0.0177778 -0.132184 0.269153
0.0142578 -0.0255219 0.0225386
0.0160215 -0.00811465 -0.0187258
0.0126902 -0.0141785 -0.00847641
0.0115571 0.00284286 -0.0410228
0.0137216 0.0125936 -0.0587163
0.00569484 -0.124638 0.272222
0.0108156 0.0111474 -0.0573078
0.00678698 0.0136454 -0.0663956
0.0067348 0.0178188 -0.07931
0.00919743 0.0209294 -0.0825254
0.0085712 0.0233323 -0.0864139
0.00905521 0.0435283 -0.131547
0.00809249 0.0448976 -0.135578
0.000865294 -0.127694 0.272408
0.00578189 0.0505094 -0.154307
0.00230862 0.0126004 -0.060135
0.00274244 0.0468593 -0.146366
0.0048756 0.094921 -0.25314
0.00392073 0.0957962 -0.260081
0.00105712 0.0924863 -0.247879
-0.00656082 0.0169647 -0.0626758
-0.00542632 0.0175577 -0.0666703
-0.00161623 0.0810305 -0.208174
-0.00410134 0.0893592 -0.224858
-0.00342035 0.0911569 -0.23438
-0.0106384 -0.00221449 -0.00392474
-0.00925125 0.0186443 -0.0646993
-0.00982724 0.0853946 -0.220431
-0.00980359 0.0857962 -0.22125
-0.0162051 0.00191181 -0.00187355
-0.0187078 0.00310933 -0.00584857
-0.0315898 0.0124344 -0.0124065
-0.0374541 0.0151126 -0.0186771
-0.0460076 0.0192832 -0.0105767
-0.0606743 0.0235403 0.000748336
-0.104421 -0.0754302 0.28279
-0.102864 0.0343914 0.0134569
-0.106829 0.0369545 0.0191471
-0.123824 0.040534 0.0313006
-0.137766 -0.0529938 0.275366
-0.138762 -0.0538958 0.274937
-0.137965 0.0437893 0.0422735
-0.143305 0.0433772 0.0401987
-0.146487 -0.0499426 0.274093
-0.152323 0.0442156 0.0572933
-0.156637 -0.0456753 0.272045
-0.158442 0.0445633 0.060941
-0.165418 -0.0360304 0.269468
-0.167624 -0.0397513 0.268358
-0.168056 0.0413231 0.0873985
-0.172377 0.0427016 0.0902241
-0.172111 0.0429094 0.0884954
-0.179744 0.0451532 0.0931883
-0.184598 -0.0233834 0.26089
-0.183352 0.0475121 0.0866287
-0.187898 0.0420895 0.116092
-0.191961 0.0479607 0.0992742
-0.194517 0.0496879 0.0902172
-0.196175 0.0474293 0.107938
-0.203287 -0.00943399 0.249085
-0.201596 0.0480037 0.112756
-0.207722 -0.00823375 0.246684
-0.212005 0.0496731 0.117749
-0.214589 0.0462834 0.132783
-0.213015 0.0508249 0.112714
-0.219993 0.0487371 0.133448
-0.223759 0.0503131 0.137184
-0.229148 0.0101533 0.232406
-0.232908 0.0542296 0.135049
-0.233522 0.0546535 0.13364
-0.243012 0.0183704 0.226936
-0.241358 0.0559951 0.141679
-0.247119 0.0589856 0.124446
-0.257979 0.0306596 0.221666
-0.257623 0.0589725 0.154446
-0.263298 0.0356518 0.219759
-0.263133 0.0581041 0.16399
-0.269023 0.0611197 0.167563
-0.276333 0.0435205 0.213113
-0.278116 0.0648366 0.158639
-0.286723 0.0513154 0.206823
-0.289286 0.072083 0.155951
-0.291604 0.0716403 0.165041
-0.289479 0.071385 0.161431
-0.299694 0.0770486 0.159747
-0.301735 0.0704073 0.17925
-0.304433 0.0801856 0.156616
-0.311709 0.0839056 0.156216
-0.310733 0.0829578 0.158399
-0.317605 0.0811316 0.16478
0.317071 -0.173289 -0.00930301
0.316754 -0.170813 -0.0136512
0.312738 -0.187849 0.0259857
0.308193 -0.193859 0.042699
0.308698 -0.163342 -0.033461
0.308262 -0.151284 -0.0532759
0.30437 -0.198392 0.0595799
0.30496 -0.137973 -0.0765847
0.29866 -0.201651 0.0784175
0.294243 -0.20384 0.0837339
0.290314 -0.109334 -0.122529
0.280369 -0.207355 0.108964
0.284753 -0.10586 -0.130105
0.269182 -0.21021 0.132487
0.269874 -0.209882 0.131234
0.259324 -0.213657 0.146609
0.264677 -0.0813753 -0.163924
0.249582 -0.212473 0.16333
0.25282 -0.0661196 -0.179386
0.243553 -0.212593 0.17195
0.243046 -0.0657695 -0.18329
0.235236 -0.213621 0.181126
0.238147 -0.0600455 -0.186197
0.228367 -0.213484 0.185808
0.231842 -0.0539303 -0.189803
0.221161 -0.211969 0.192556
0.21629 -0.0433982 -0.200813
0.202461 -0.210523 0.209416
0.20297 -0.206422 0.211026
0.197673 -0.207802 0.216322
0.190526 -0.205687 0.224615
0.185208 -0.206388 0.228197
0.191431 -0.021711 -0.218462
0.155125 -0.198569 0.239266
0.144903 -0.195462 0.240904
0.143122 -0.194261 0.241604
0.132341 -0.185737 0.24714
0.129276 -0.186992 0.246567
0.107324 0.0285284 -0.240125
0.0983498 0.0378222 -0.24832
0.0780374 -0.166749 0.258248
0.0497121 -0.154816 0.264675
0.0439945 -0.149556 0.267322
0.0255439 0.100841 -0.304027
0.0153728 -0.13467 0.268446
0.0187937 0.100681 -0.301519
0.00991386 -0.00431071 -0.0303087
0.00783687 -0.00769065 -0.0226504
0.0116421 0.102431 -0.287214
0.00595894 -0.0156457 -0.000995899
0.00637432 -0.00935004 -0.0182272
0.00493772 -0.00939054 -0.0170518
0.00569782 -0.00118547 -0.0354853
0.00508575 0.0397471 -0.12782
0.00413486 0.0987509 -0.275212
-0.000390582 -0.00862865 -0.0112698
-0.00714531 -0.130345 0.273883
-0.00032583 -0.0123154 0.00519205
-0.00411505 0.00941359 -0.0523082
-0.00153065 0.0590935 -0.178571
-0.00662332 -0.000805251 -0.0255191
-0.00679457 0.0342806 -0.10879
-0.0142126 -0.125759 0.275845
-0.0121685 -0.124705 0.275525
-0.0102675 0.00568142 -0.0374823
-0.00958849 0.0143913 -0.0580496
-0.0133422 0.00572166 -0.033216
-0.0108453 0.0330308 -0.106691
-0.0209249 -0.12435 0.277351
-0.0117551 0.0812094 -0.213849
-0.0114577 0.0844185 -0.219577
-0.0109941 0.0882456 -0.232487
-0.0170945 0.00478668 -0.0256829
-0.0156476 0.084124 -0.222462
-0.0314463 -0.117627 0.279792
-0.0278161 0.0113351 -0.0340894
-0.0290822 0.010341 -0.0184012
-0.0351103 0.013544 -0.023053
-0.0563891 0.019504 -0.0163097
-0.0687929 -0.0975635 0.280076
-0.0794425 0.0260344 -0.00213451
-0.0852809 -0.0910457 0.280468
-0.0841244 0.0287739 0.00296643
-0.0902224 0.0297777 0.00422254
-0.0919677 0.0299254 0.00418971
-0.100505 -0.0843158 0.281502
-0.106148 0.0351513 0.013795
-0.119803 0.038893 0.021361
-0.141348 -0.0578261 0.273527
-0.143465 0.0428608 0.0376987
-0.145509 0.0421097 0.0356574
-0.15561 0.0431003 0.0516343
-0.161838 0.0441598 0.0572131
-0.171159 0.0461917 0.0642668
-0.193008 -0.0243511 0.253906
-0.196227 0.0499037 0.0843233
-0.195462 0.0495387 0.0809906
-0.219476 -0.00366568 0.237185
-0.217325 0.0508281 0.0999256
-0.221403 0.0518507 0.109837
-0.241171 0.0579426 0.124598
-0.257499 0.0594706 0.132592
-0.263341 0.0606724 0.147442
-0.269469 0.0600672 0.157545
-0.277096 0.0646096 0.154362
-0.28094 0.0668773 0.155187
-0.297495 0.0565017 0.200369
-0.30186 0.0722533 0.171304
-0.307493 0.0699245 0.180072
0.312775 -0.180532 0.00120495
0.312713 -0.170686 -0.0180886
0.309146 -0.187739 0.0160554
0.306956 -0.195695 0.0475536
0.307854 -0.190093 0.0245268
0.30876 -0.164389 -0.031688
0.304223 -0.197403 0.0495491
0.303105 -0.197374 0.0463194
0.304743 -0.192704 0.0309399
0.304452 -0.164033 -0.0374287
0.301621 -0.14682 -0.067414
0.301576 -0.143802 -0.071712
0.296556 -0.130782 -0.0924691
0.294471 -0.135865 -0.088712
0.294959 -0.130777 -0.0941768
0.292028 -0.1254 -0.103377
0.283713 -0.116568 -0.121607
0.276175 -0.107569 -0.134725
0.263812 -0.213779 0.134561
0.262826 -0.214707 0.132931
0.258395 -0.215397 0.14251
0.262662 -0.0844611 -0.164347
0.25895 -0.0839605 -0.167525
0.250759 -0.0733286 -0.179568
0.251808 -0.0717214 -0.179376
0.243769 -0.216507 0.164086
0.24315 -0.217312 0.163245
0.218725 -0.21331 0.193765
0.217835 -0.214434 0.193776
0.218016 -0.0498411 -0.197037
0.209857 -0.215057 0.200501
0.216349 -0.0445031 -0.200338
0.197554 -0.215389 0.211031
0.189758 -0.0288614 -0.219102
0.181075 -0.208764 0.229692
0.14287 0.00588729 -0.231779
0.139053 0.00459626 -0.233926
0.0943961 0.0442243 -0.260959
0.0850798 -0.172834 0.254668
0.0539501 0.0863635 -0.312292
0.0442122 -0.154714 0.264327
0.0387698 -0.152482 0.264847
0.0329955 -0.150275 0.264981
0.0293125 0.0964175 -0.310514
0.00562242 -0.136394 0.269655
0.00107652 0.0973984 -0.280834
-0.00197132 0.0203947 -0.0872803
-0.00676021 0.0230175 -0.0910241
-0.00546981 0.0338038 -0.123835
-0.00381059 0.0380584 -0.134635
-0.00383696 0.0408076 -0.140228
-0.00609613 0.0171225 -0.0758713
-0.00846486 0.0176385 -0.0804093
-0.010501 0.0177815 -0.0793075
-0.00891426 0.0649453 -0.193003
-0.0100133 0.087828 -0.24584
-0.0167287 0.012926 -0.0546791
-0.019512 0.0730473 -0.204139
-0.0532486 -0.110241 0.279383
-0.0673808 -0.104218 0.279941
-0.0694234 -0.101587 0.280047
-0.0784649 -0.0957761 0.280223
-0.103779 0.0327058 0.00751443
-0.118516 -0.0787664 0.280582
-0.134289 0.0401516 0.0251655
-0.165319 0.0439868 0.0563
-0.172884 -0.0468121 0.265738
-0.175015 0.044266 0.0565548
-0.176496 0.0448527 0.0584283
-0.186297 -0.0312366 0.258767
-0.186255 -0.0331561 0.258392
-0.188415 0.0464694 0.0651944
-0.204259 0.0496513 0.0886097
-0.20865 0.0494951 0.091243
-0.229452 -0.00039577 0.232071
-0.231713 0.05312 0.115403
-0.247866 0.0127353 0.225004
-0.251016 0.0571276 0.119573
-0.265833 0.060253 0.131234
-0.270241 0.0626803 0.136724
-0.291121 0.071037 0.140218
-0.29709 0.0468211 0.201073
-0.301897 0.0504499 0.197941
-0.309674 0.057563 0.191091
-0.311215 0.0604016 0.189098
-0.320788 0.0845134 0.144219
0.306954 -0.188644 0.015875
0.306763 -0.175158 -0.0169402
0.306065 -0.18444 0.00334765
0.303965 -0.180084 -0.00963521
0.302312 -0.163368 -0.0410527
0.293924 -0.148206 -0.072675
0.287516 -0.207307 0.0822594
0.287966 -0.131187 -0.100476
0.281239 -0.209932 0.0906061
0.282802 -0.125949 -0.111262
0.272172 -0.109669 -0.135905
0.268878 -0.103234 -0.144591
0.264418 -0.214342 0.128372
0.267414 -0.0991938 -0.149974
0.258247 -0.089844 -0.164756
0.248078 -0.217706 0.153044
0.235056 -0.218501 0.174823
0.235422 -0.22017 0.1705
0.236392 -0.21994 0.169182
0.23593 -0.0662105 -0.186497
0.233311 -0.065766 -0.187784
0.218409 -0.0551847 -0.195287
0.203088 -0.2186 0.203527
0.211783 -0.046199 -0.202422
0.205875 -0.0440908 -0.206234
0.186499 -0.214726 0.2229
0.184233 -0.0253046 -0.22203
0.183213 -0.0261667 -0.222631
0.180907 -0.0228157 -0.223435
0.171218 -0.0156884 -0.228023
