ply
format ascii 1.0
comment Created by Open3D
element vertex 1621
property double x
property double y
property double z
end_header
0.236926 0.147388 0.147805
0.183669 0.206832 0.0731093
0.123133 0.229084 0.0854544
0.031968 0.177808 0.32478
-0.0594219 0.250796 0.254726
0.356576 0.0497768 0.211997
0.335482 0.116131 0.0827877
0.315815 0.126489 0.0906997
0.259387 0.157524 0.0798351
0.228889 0.141141 0.155919
0.145973 0.218492 0.0684443
0.0571956 0.157404 0.330092
0.419369 0.0777068 0.0584212
0.37612 0.0421703 0.189474
0.32012 0.0817286 0.172894
0.28404 0.0583878 0.267433
0.244474 0.0708439 0.293349
0.206499 0.187824 0.0529391
0.166385 0.210242 0.0591931
0.129136 0.110204 0.331916
0.0786483 0.238264 0.101
0.0336573 0.240919 0.136445
-0.0329378 0.212167 0.292075
-0.0576361 0.250304 0.239558
0.408951 0.0860529 0.041642
0.363956 0.100475 0.0603491
0.315396 0.0488992 0.246121
0.283269 0.134718 0.0747538
0.246141 0.160877 0.0659335
0.229122 0.17083 0.0528693
0.178957 0.0858402 0.321228
0.109421 0.228338 0.0664076
0.0811491 0.236174 0.0917729
-0.0417079 0.244755 0.219872
0.416286 0.047704 0.11392
0.372399 0.097388 0.0489232
0.306441 0.0434465 0.252054
0.285085 0.133683 0.0750703
0.243408 0.058182 0.292857
0.171275 0.206298 0.0387397
0.0987315 0.228936 0.0594689
0.016446 0.236025 0.144605
-0.0538845 0.21768 0.281138
0.42229 0.0690622 0.0371175
0.367174 0.0327335 0.199173
0.306073 0.118861 0.0659303
0.286052 0.130086 0.0682203
0.253727 0.0491713 0.286362
0.224205 0.129108 0.148086
0.132182 0.0930254 0.331246
0.0997145 0.228617 0.058545
0.0311983 0.233499 0.130482
-0.0319036 0.236254 0.202864
0.415509 0.0728383 0.0237343
0.374334 0.0268887 0.189861
0.34649 0.0266036 0.219798
0.294793 0.0650347 0.192424
0.272707 0.0425731 0.27391
0.250182 0.109866 0.132426
0.225006 0.121047 0.147398
0.173531 0.0758287 0.322402
0.127049 0.094248 0.331958
0.0796785 0.22778 0.0683378
-0.0171661 0.175682 0.313048
-0.0640537 0.237836 0.227237
0.420798 0.0331323 0.102348
0.391108 0.0221036 0.164332
0.360274 0.0229142 0.205944
0.299301 0.118023 0.0583729
0.260345 0.0384863 0.280953
0.235455 0.160309 0.0342788
0.19653 0.0632524 0.314344
0.169 0.0703394 0.323127
0.132055 0.216182 0.0177929
0.0899101 0.226318 0.0534931
0.0273112 0.141801 0.325611
-0.0877764 0.229215 0.265166
0.392839 0.0158554 0.159909
0.290027 0.0294234 0.262393
0.262433 0.0372624 0.279525
0.216638 0.0452696 0.305071
0.190339 0.191086 0.00757407
0.141441 0.212877 0.0119566
0.0516459 0.224797 0.0866658
-0.0181965 0.164643 0.314347
-0.0807458 0.217801 0.274338
0.421117 0.0239109 0.0972858
0.403114 0.0137684 0.141152
0.376934 0.0879917 0.0119867
0.325432 0.101583 0.0408079
0.299442 0.0631751 0.167345
0.252139 0.143752 0.0211507
0.226782 0.0936436 0.177622
0.184599 0.19191 -0.00989387
0.067092 0.221836 0.0652591
-0.0371613 0.172639 0.307817
-0.0997992 0.226839 0.253011
0.415225 0.0142258 0.111307
0.355731 0.0888355 0.0170919
0.293642 0.0798073 0.112917
0.285006 0.0803471 0.108772
0.265374 0.0249535 0.277228
0.240198 0.0774603 0.183468
0.195295 0.0468858 0.313857
0.094926 0.216385 0.0273405
0.0362927 0.221013 0.0946094
-0.101097 0.218676 0.265255
0.397612 0.00504776 0.148164
0.344941 0.00457915 0.215361
0.296929 0.0615735 0.130563
0.28362 0.0792628 0.109951
0.261382 0.0653893 0.176991
0.242864 0.0749001 0.179193
0.201441 0.175705 -0.0198649
0.147772 0.204482 -0.0127497
0.0888992 0.0899533 0.329698
0.0360572 0.218812 0.0901652
-0.041063 0.21816 0.180068
0.431653 0.0206248 0.0604974
0.395207 0.00113203 0.15081
0.323272 0.0570881 0.106734
0.280431 0.064156 0.146718
0.256922 0.0739392 0.149005
0.23415 0.14764 0.000622792
0.215249 0.164209 -0.0172412
0.157707 0.0521104 0.323563
0.054619 0.100939 0.324299
-0.04523 0.163183 0.307934
-0.110615 0.215715 0.25903
0.353246 -0.00621378 0.20622
0.290477 0.0750627 0.0874936
0.236917 0.144391 -0.00336599
0.187898 0.180176 -0.0340659
0.116605 0.208541 -0.00687501
0.0076486 0.210592 0.114389
-0.0314032 0.211549 0.163047
0.417411 0.00291201 0.0953264
0.388818 -0.00518539 0.1568
0.331727 0.0869271 -0.000118984
0.315008 0.0940661 0.0111518
0.270297 0.00587444 0.272035
0.253524 0.127163 -0.00604254
0.220939 0.0170554 0.29974
0.18919 0.178769 -0.0360875
0.103321 0.0673516 0.327738
0.0222665 0.21008 0.0893666
-0.00635831 0.133887 0.315053
-0.0977458 0.214597 0.225439
0.428883 0.00345375 0.0686104
0.371901 -0.0148215 0.182746
0.311696 -0.00956167 0.240406
0.279073 -0.00542926 0.265393
0.274002 0.0718635 0.097451
0.182144 0.180154 -0.0465028
0.0902249 0.204261 0.00513494
-0.0173326 0.206896 0.141608
-0.0956905 0.18402 0.284144
0.430604 0.0174553 0.0176354
0.411797 -0.00909435 0.108327
0.362144 0.0762598 -0.0344987
0.324153 -0.01631 0.229852
0.287926 0.101811 -0.00211067
0.259361 0.119599 -0.00879649
0.133656 0.194311 -0.036414
0.0767196 0.0711589 0.324806
-0.0176113 0.199383 0.129622
-0.0912849 0.172143 0.291273
0.428273 -0.00671907 0.0634224
0.397822 0.0531787 -0.0408714
0.315761 0.0874856 -0.0147453
0.29685 0.0390038 0.120049
0.259091 0.116245 -0.0199638
0.206641 0.16032 -0.0566303
0.15579 0.185739 -0.0559623
0.0441787 0.200402 0.0469797
-0.0644544 0.14349 0.307694
-0.133454 0.20352 0.245919
0.405861 -0.0222486 0.119454
0.364578 -0.0302475 0.190309
0.308957 0.0871467 -0.0280177
0.262442 -0.0138788 0.276483
0.233044 0.136691 -0.0399485
0.2037 0.159427 -0.0643776
0.108692 0.193279 -0.0344286
0.0574826 0.072939 0.320855
-0.0339443 0.121467 0.315377
0.429646 0.00728254 0.00638908
0.393429 -0.028047 0.141754
0.350442 0.0734121 -0.0531778
0.303144 0.0361934 0.095088
0.277419 -0.0253939 0.264147
0.230185 0.135989 -0.0513588
0.12562 0.0315005 0.32236
0.0451261 0.194398 0.0388379
-0.0316758 0.117034 0.31623
-0.0923789 0.160715 0.295847
0.421815 0.0187893 -0.0223498
0.394866 -0.0385464 0.137956
0.377526 0.0597509 -0.0678051
0.323832 0.0785696 -0.043509
0.287651 0.0386655 0.0958811
0.270273 0.0505566 0.0934522
0.187634 0.000454034 0.308992
0.140046 0.183888 -0.0616539
0.0336164 0.076653 0.320238
-0.0721168 0.187439 0.176547
0.403958 -0.0356056 0.117044
0.347589 -0.0413508 0.204302
0.267983 0.102683 -0.0455661
0.204255 0.150621 -0.0776239
0.0974013 0.0380457 0.321121
0.0500546 0.18746 0.021969
0.0197127 0.185956 0.0620494
-0.04425 0.185201 0.143465
-0.11734 0.192683 0.21829
0.415072 0.019956 -0.0363725
0.341265 -0.0488357 0.206297
0.290709 0.0887147 -0.0538089
0.240408 0.11946 -0.0645726
0.199002 0.152663 -0.0817601
0.0959261 0.0333508 0.320503
0.0341805 0.183556 0.0398581
-0.0438107 0.103415 0.31507
-0.118437 0.157755 0.285286
0.402039 -0.0460469 0.116568
0.305882 0.0804113 -0.0639757
0.188325 0.153363 -0.0906346
0.0683583 0.0452006 0.318749
-0.0640849 0.178641 0.162048
-0.1221 0.182244 0.214442
0.430769 -0.0213522 0.0170733
0.410568 -0.045283 0.0946809
0.34736 0.0650745 -0.0904556
0.269749 0.0951374 -0.0642579
0.191547 0.14696 -0.0962031
0.121242 0.176592 -0.0722081
0.0204118 0.0613223 0.320029
-0.0192111 0.175594 0.103564
-0.110264 0.143429 0.292939
0.412276 -0.0477853 0.0830534
0.346729 0.0615037 -0.100136
0.283816 0.0870719 -0.0702156
0.157147 0.162633 -0.0949403
0.0937118 0.178512 -0.0535797
0.0326359 0.0473292 0.321418
-0.0332132 0.169406 0.119123
-0.100589 0.175538 0.19288
-0.138784 0.18144 0.223978
0.422483 -0.0404943 0.0524057
0.313902 -0.0562211 0.220584
0.250058 0.10228 -0.082517
0.184762 -0.0210268 0.298851
0.109037 0.174584 -0.0710732
0.0250949 0.166487 0.0379368
-0.0451997 0.0900851 0.315312
-0.136183 0.175429 0.218906
0.421844 -0.0446525 0.050711
0.344925 0.058484 -0.108142
0.256051 -0.0505059 0.260176
0.206201 -0.0384915 0.286478
0.107009 0.168746 -0.0780336
0.0356884 0.0377425 0.321562
-0.0310585 0.154986 0.12157
-0.100297 0.120108 0.299245
0.427626 -0.046166 0.0261949
0.387172 0.0255058 -0.0842747
0.344275 0.0559713 -0.112695
0.290056 -0.0636124 0.233924
0.222719 0.114148 -0.110517
0.135013 0.160099 -0.102811
0.0338047 0.16342 0.0189144
-0.033709 0.0718415 0.318346
-0.117945 0.166623 0.202857
-0.172922 0.168124 0.250402
0.39059 -0.0722358 0.124329
0.322071 0.0667897 -0.120385
0.260029 0.0909636 -0.102387
0.154405 0.150954 -0.109286
0.0939713 0.1654 -0.0763374
0.0747895 0.167803 -0.0528005
0.0313123 0.159659 0.0206086
-0.015199 0.0543116 0.320058
-0.0602507 0.0837746 0.311819
-0.100087 0.150039 0.193323
0.4258 -0.0475544 0.00976287
0.403085 -0.0677436 0.0884327
0.35531 -0.0781283 0.171166
0.308 0.0702794 -0.122922
0.247126 -0.0598344 0.256957
0.141961 0.152402 -0.110488
0.0453663 0.0178383 0.321993
-0.000566071 0.043003 0.320579
-0.0586544 0.075457 0.312414
-0.0826529 0.139086 0.185234
0.421022 -0.0612601 0.0328854
0.378163 0.0183247 -0.10251
0.316628 0.0643139 -0.129071
0.252468 0.0908195 -0.12298
0.181207 0.127654 -0.122153
0.114538 -0.0197144 0.311511
0.0899516 0.0590349 0.16228
0.0751599 0.0746873 0.138338
0.0364774 0.0194844 0.322042
-0.00404896 0.0370878 0.321108
-0.0316974 0.135432 0.129708
-0.0603569 0.13283 0.166676
-0.162257 0.142921 0.269477
0.40824 -0.0204174 -0.0586228
0.324454 0.0554198 -0.132985
0.214825 -0.0584897 0.272567
0.118699 -0.0260328 0.308264
0.0611385 0.157509 -0.0538233
0.00518964 0.129543 0.0752735
-0.0588744 0.125463 0.166616
-0.103438 0.141308 0.195706
-0.171798 0.145199 0.264026
0.325288 -0.0854818 0.193552
0.258716 0.0856574 -0.132739
0.183695 -0.0520201 0.282568
0.0944887 0.0510301 0.151666
0.069115 0.153843 -0.0690161
0.0264062 0.140654 0.0210406
-0.035561 0.11958 0.142295
-0.118467 0.0983016 0.290296
0.417077 -0.0747602 0.0392687
0.336686 0.0387644 -0.135595
0.271635 0.0737633 -0.146089
0.223467 0.0999109 -0.12934
0.111825 0.148824 -0.117798
0.0880226 -0.0235387 0.314275
0.079922 0.153151 -0.0861438
0.0452571 3.39394e-05 0.321278
0.0314268 0.0734132 0.148867
-0.020203 0.036222 0.320158
-0.0680714 0.0596517 0.309068
-0.125167 0.0977821 0.28726
-0.182808 0.144187 0.255029
0.395197 -0.0874691 0.0868112
0.357718 -0.0942462 0.149147
0.305151 0.0579549 -0.145229
0.202736 -0.0656486 0.271383
0.122854 -0.0388862 0.302568
0.0640962 0.0361384 0.192303
0.0360628 0.138722 -0.015359
-0.0350871 0.113021 0.140655
-0.0772437 0.0625277 0.304649
-0.15705 0.137898 0.217491
0.411595 -0.086251 0.0452171
0.377931 -0.101568 0.115696
0.278313 0.0652114 -0.153781
0.155195 0.121723 -0.14454
0.103916 0.145444 -0.120479
0.0790294 0.147491 -0.100852
0.0335286 -0.00849103 0.322495
-0.00928328 0.114605 0.0940495
-0.0685672 0.106736 0.177079
-0.101762 0.119509 0.19485
0.421158 -0.0813884 0.00833268
0.357201 -0.102652 0.144736
0.31169 -0.101118 0.197217
0.204534 -0.0758688 0.26314
0.077114 0.0543834 0.112901
0.058493 0.143617 -0.0741794
0.0282235 0.0694935 0.132134
-0.0774648 0.0553426 0.304124
-0.131216 0.0931808 0.284259
-0.172674 0.130285 0.231811
0.405938 -0.0567295 -0.0346127
0.3595 0.0039965 -0.126909
0.270853 -0.0985154 0.220772
0.214634 0.0904942 -0.150756
0.0981123 -0.0437475 0.308692
0.0431635 0.0668344 0.115091
0.0304348 0.131173 -0.0150581
-0.0359935 0.0958411 0.136273
-0.136939 0.0878465 0.281575
0.406451 -0.0947949 0.0424923
0.364464 -0.109677 0.127416
0.222244 -0.0855374 0.245626
0.200442 0.0928188 -0.153464
0.0971399 -0.0478445 0.30779
0.0889131 0.03879 0.123377
0.067686 0.0242069 0.173233
0.0431073 0.0267612 0.18801
0.0221327 0.12057 -0.0059629
-0.0265457 0.0938687 0.125856
-0.101859 0.100974 0.197292
-0.18609 0.123848 0.253786
0.384425 -0.0372226 -0.086893
0.318885 -0.113201 0.180795
0.218214 -0.0882485 0.245212
0.144681 -0.069133 0.28631
0.0695096 0.136627 -0.113783
0.0227325 0.121974 -0.0101443
-0.0263498 0.000580901 0.318004
-0.141465 0.0810853 0.279616
0.415038 -0.0893343 -0.00748008
0.388773 -0.0511601 -0.0668531
0.287307 -0.113841 0.202961
0.215344 0.079123 -0.162787
0.0908899 -0.054407 0.307181
0.0779945 0.0316136 0.119357
0.0513124 0.130486 -0.0849272
0.0203563 0.117391 -0.0144427
-0.0763359 0.0323522 0.303717
-0.137188 0.103755 0.215021
0.409185 -0.103602 0.0143067
0.32436 0.0115961 -0.156653
0.226954 0.0717026 -0.166978
0.143062 0.110068 -0.155873
0.0660045 -0.0480281 0.311901
0.0460266 0.127413 -0.0763252
0.0175291 0.112563 -0.0136946
-0.0461487 0.00496705 0.313564
-0.133214 0.0927185 0.211537
-0.179506 0.107945 0.239519
0.388629 -0.115186 0.0654637
0.363105 -0.12322 0.113
0.316849 -0.123365 0.170774
0.277489 0.0391695 -0.172262
0.197223 -0.0977519 0.253296
0.185167 0.0834342 -0.170242
0.0805533 0.126542 -0.131906
0.0408825 -0.0420715 0.317843
0.0346972 0.104631 -0.0248031
0.0179786 0.0347422 0.160869
-0.00694849 0.0791461 0.0786284
-0.0794933 0.025809 0.302204
-0.115134 0.0838978 0.202477
0.375536 -0.0483322 -0.087681
0.325225 0.00589814 -0.156555
0.25247 0.0491775 -0.176828
0.151537 0.0979113 -0.166028
0.0687698 -0.0599743 0.31017
0.0384016 0.102805 -0.0335357
0.0214189 0.0796353 0.0336308
-0.0315916 -0.00939735 0.315001
-0.120734 0.0509408 0.285232
-0.194916 0.104158 0.242624
0.378159 -0.126885 0.0748699
0.323997 -0.000643628 -0.157413
0.224803 -0.111057 0.230454
0.169187 -0.100274 0.266858
0.101399 0.112846 -0.157987
0.0570486 0.121807 -0.118085
0.02792 0.0731132 0.0239421
0.0159648 0.030616 0.152065
0.0143561 0.0897302 0.0305153
-0.0592424 0.0708478 0.147295
-0.200546 0.0925789 0.263519
0.386304 -0.0843898 -0.0401567
0.349561 -0.0283176 -0.130455
0.313308 0.00577285 -0.164605
0.225091 0.0555624 -0.182436
0.161031 -0.0969959 0.271089
0.0781523 0.11742 -0.142926
0.0515745 0.11752 -0.108194
0.0362818 0.0777718 0.00299443
-0.000297918 0.0687273 0.061328
-0.0688071 0.0646799 0.152296
-0.16138 0.0656107 0.273265
0.397255 -0.115098 0.00793173
0.367126 -0.0670978 -0.0734967
0.256074 -0.127787 0.208548
0.165717 0.0808174 -0.182461
0.0448937 0.0782409 -0.0247055
0.0396127 0.0716502 -0.00233801
0.0282924 0.0261869 0.119744
-0.0450527 0.0633951 0.118351
-0.151317 0.0533315 0.275801
-0.209122 0.100048 0.240786
0.378793 -0.087706 -0.0494298
0.31885 -0.140501 0.150341
0.204225 -0.119838 0.242256
0.0922588 0.107994 -0.162726
0.0446094 0.0745472 -0.0219899
0.0243148 0.0249949 0.122595
-0.0140073 0.0665188 0.0704157
-0.112017 0.0205526 0.288869
-0.179872 0.0678605 0.267806
0.375708 -0.142184 0.0745974
0.316577 -0.144332 0.148957
0.27171 -0.139068 0.192323
0.175534 0.0690529 -0.187997
0.0807324 0.109977 -0.15944
0.0503098 0.0769157 -0.044231
0.0353338 0.00896848 0.131831
-0.0325649 0.061248 0.0882967
-0.0988379 0.0607129 0.173405
-0.158442 0.0504876 0.273607
0.385578 -0.128066 0.011942
0.345359 -0.148228 0.112008
0.271996 -0.142593 0.189796
0.198144 -0.130178 0.243768
0.103887 -0.102927 0.295278
0.039749 0.0518392 0.0114834
-0.0458216 -0.0280576 0.304209
-0.131479 0.0624172 0.194636
0.36039 -0.150446 0.0929227
0.298559 -0.152222 0.15753
0.236696 0.0293259 -0.192227
0.126151 -0.109652 0.284047
0.0563115 0.0416038 -0.0072993
0.0450996 0.057559 -0.0213605
-0.00240652 -0.0569434 0.311357
-0.0690166 -0.0200286 0.299203
-0.191214 0.0568034 0.26216
0.376575 -0.131163 0.00142902
0.329017 -0.0461379 -0.135095
0.260403 -0.148858 0.191078
0.187675 -0.134775 0.249885
0.0581683 -0.0953167 0.305464
0.0475988 0.0958995 -0.135654
-0.0143265 0.0535624 0.0545721
-0.0930136 0.0493924 0.158054
-0.163371 0.0348686 0.271844
0.374896 -0.134219 0.00577536
0.338561 -0.066822 -0.105553
0.299449 -0.159509 0.152051
0.198007 0.0418629 -0.200368
0.088154 -0.110808 0.295013
0.0598992 0.0523244 -0.0501973
0.0438456 0.0480831 -0.0254717
0.00728016 -0.069004 0.309309
-0.0303489 -0.0491562 0.300632
-0.139743 0.0540918 0.189924
-0.193126 0.0661448 0.215905
0.370581 -0.132856 -0.00548932
0.30207 -0.164427 0.148252
0.240166 0.0153138 -0.195982
0.10852 0.0785396 -0.184937
0.0451228 0.0296179 0.0037014
0.0300553 0.022611 0.0362808
-0.0323554 0.0481287 0.0613137
-0.125743 0.0468955 0.173787
-0.234991 0.0785829 0.241686
0.354404 -0.163097 0.07426
0.305148 -0.165407 0.145943
0.233189 0.0147422 -0.198916
0.058834 0.0447667 -0.0455269
0.0370825 -0.0963222 0.301488
0.0270097 0.0238415 0.0355833
-0.0487866 0.0458904 0.0762953
-0.152503 0.0120894 0.27695
-0.246803 0.0799473 0.229874
0.356189 -0.10372 -0.0742064
0.325981 -0.171122 0.108463
0.287311 -0.0315596 -0.16911
0.233215 0.0107865 -0.199823
0.181811 0.0380638 -0.21014
0.142499 0.0536221 -0.199612
0.0769766 0.0876561 -0.192463
0.0536252 0.0284615 -0.0182483
0.0370853 0.0127986 0.0335028
-0.0165666 -0.0694853 0.295802
-0.0700117 -0.0434681 0.29364
-0.203701 0.0628437 0.212856
0.35538 -0.125167 -0.046211
0.320551 -0.0812874 -0.106593
0.280714 -0.173192 0.161932
0.254122 -0.170064 0.185822
0.159095 0.0438812 -0.206242
0.0764481 -0.120032 0.291132
0.0415691 0.016114 0.0115433
0.0364739 0.0847692 -0.143881
-0.0466069 0.040638 0.0599981
-0.105984 -0.0284847 0.287551
-0.234656 0.0727668 0.216221
0.306878 -0.0648008 -0.13304
0.255156 -0.0133386 -0.190008
0.177041 0.034378 -0.215619
0.120517 0.0579355 -0.198779
0.061994 0.0938868 -0.20985
0.0411337 0.081765 -0.156778
0.00164655 0.0184171 0.0338718
-0.0785903 0.0378211 0.083502
-0.185822 0.0225181 0.260527
0.354252 -0.146926 -0.0061329
0.311898 -0.179448 0.114648
0.253929 -0.0183661 -0.189378
0.155906 0.0387852 -0.211677
0.0883153 -0.137899 0.281487
0.0608224 0.0935341 -0.226024
0.0437327 0.0948562 -0.209593
0.0249951 -0.006611 0.0469415
-0.0227537 0.0278406 0.0283767
-0.0939606 0.0350721 0.0964029
-0.197624 0.0228468 0.253959
0.34883 -0.162529 0.0216515
0.329259 -0.106581 -0.0887196
0.294059 -0.0659 -0.140906
0.246047 -0.0235136 -0.192015
0.160679 -0.164898 0.255342
0.0617894 0.0932391 -0.235739
0.0322667 0.0589218 -0.112838
-0.0235397 0.0274298 0.0281234
-0.129331 0.0351417 0.137146
-0.223075 0.056591 0.202368
0.339913 -0.173968 0.0446753
0.316531 -0.100458 -0.0966106
0.289376 -0.0688467 -0.142775
0.256 -0.0308453 -0.184405
0.0948804 -0.145441 0.277093
0.0628558 0.105084 -0.282822
0.0552161 0.109711 -0.275684
0.0361496 0.0098793 -0.0173503
0.0277677 0.0646242 -0.137506
-0.0328277 -0.0833125 0.284215
-0.12332 -0.0347617 0.282539
-0.219614 0.0515631 0.195234
0.338018 -0.148313 -0.0280324
0.316032 -0.188636 0.0949422
0.285136 -0.194021 0.143947
0.220191 -0.182019 0.205582
0.0888717 0.0715142 -0.251719
0.0846677 0.0860042 -0.266633
0.0562499 -0.134755 0.278893
0.0268598 -0.0144095 0.0401428
0.0270358 0.0688131 -0.153851
0.024816 0.0879904 -0.205145
-0.019243 0.0176615 0.0237364
-0.110127 -0.0492121 0.282947
-0.148701 -0.0280081 0.276959
-0.222548 0.0296682 0.238213
0.334808 -0.172561 0.022427
0.317287 -0.189186 0.0896792
0.266978 -0.19625 0.162247
0.224716 -0.189706 0.199155
0.168864 -0.179691 0.246165
0.10252 -0.15534 0.270285
0.0334883 -0.00451354 -0.00716894
0.0212861 0.0405923 -0.0995815
0.025195 0.110298 -0.274711
-0.0454067 0.0257007 0.021206
-0.0985901 0.0379794 0.0493159
-0.141484 0.0325807 0.123051
-0.187006 0.0405624 0.151262
-0.230825 0.0531644 0.179623
-0.285008 0.0682411 0.207503
0.320146 -0.189275 0.0687843
0.249891 -0.198834 0.175809
0.175061 -0.18699 0.240489
0.115435 0.038497 -0.217745
0.0801617 0.0875714 -0.287954
0.0320156 -0.0113911 -0.000528533
0.0200088 0.0467471 -0.118587
-0.0112057 0.00276807 0.0219044
-0.113457 0.0368793 0.0671085
-0.185725 0.0383574 0.144777
-0.238716 0.0298815 0.229954
0.329194 -0.168885 -0.00308327
0.322473 -0.145458 -0.0479401
0.302085 -0.108969 -0.108982
0.262398 -0.201837 0.161808
0.214519 -0.0239553 -0.207565
0.169341 0.0127017 -0.226525
0.0574075 0.0964696 -0.302764
0.0152953 0.0425267 -0.118382
-0.0157111 -0.109843 0.277309
-0.0609188 0.0272019 0.0141633
-0.132545 -0.0465929 0.2779
-0.152768 0.0315217 0.117655
-0.175857 -0.0196241 0.266285
-0.237146 0.0557644 0.164184
-0.277685 0.0671558 0.175481
0.316507 -0.14954 -0.047598
0.287872 -0.202098 0.11155
0.256092 -0.0596988 -0.17796
0.198657 -0.0138616 -0.215362
0.111852 -0.171706 0.257278
0.0496582 -0.145625 0.270767
0.0142592 0.024356 -0.0827041
0.0098277 0.0974757 -0.249014
-0.00319374 0.0911701 -0.231677
-0.0789621 0.0311488 0.0136868
-0.148971 -0.0443548 0.274805
-0.169642 0.0320107 0.123858
-0.191653 0.0428873 0.117616
-0.249842 0.0576523 0.162678
0.316496 -0.186011 0.0268434
0.303731 -0.134174 -0.0820597
0.264987 -0.0787262 -0.164407
0.208463 -0.202494 0.207448
0.0914076 -0.166314 0.258771
0.0303298 -0.139225 0.268891
0.0108156 0.0111474 -0.0573078
0.00578189 0.0505094 -0.154307
-0.00161623 0.0810305 -0.208174
-0.0187078 0.00310933 -0.00584857
-0.123824 0.040534 0.0313006
-0.158442 0.0445633 0.060941
-0.183352 0.0475121 0.0866287
-0.212005 0.0496731 0.117749
-0.243012 0.0183704 0.226936
-0.276333 0.0435205 0.213113
-0.304433 0.0801856 0.156616
0.308698 -0.163342 -0.033461
0.284753 -0.10586 -0.130105
0.243046 -0.0657695 -0.18329
0.20297 -0.206422 0.211026
0.132341 -0.185737 0.24714
0.0153728 -0.13467 0.268446
0.00569782 -0.00118547 -0.0354853
-0.00662332 -0.000805251 -0.0255191
-0.0209249 -0.12435 0.277351
-0.0290822 0.010341 -0.0184012
-0.0919677 0.0299254 0.00418971
-0.161838 0.0441598 0.0572131
-0.241171 0.0579426 0.124598
-0.307493 0.0699245 0.180072
0.303105 -0.197374 0.0463194
0.292028 -0.1254 -0.103377
0.250759 -0.0733286 -0.179568
0.216349 -0.0445031 -0.200338
0.0539501 0.0863635 -0.312292
-0.00676021 0.0230175 -0.0910241
-0.0100133 0.087828 -0.24584
-0.118516 -0.0787664 0.280582
-0.188415 0.0464694 0.0651944
-0.270241 0.0626803 0.136724
0.306763 -0.175158 -0.0169402
0.282802 -0.125949 -0.111262
0.235422 -0.22017 0.1705
0.186499 -0.214726 0.2229
0.0982085 0.0288744 -0.255455
-0.00552366 -0.138093 0.272544
-0.0117671 0.0681891 -0.196305
-0.0392103 0.012174 -0.0425612
-0.0897221 -0.0949708 0.279356
-0.262197 0.0166871 0.219236
-0.308967 0.0561832 0.191954
0.294261 -0.202653 0.0531175
0.274347 -0.113926 -0.130965
0.213571 -0.0548535 -0.198386
0.176764 -0.0264399 -0.226089
0.104655 0.0220304 -0.248442
0.0545963 0.0759808 -0.318981
-0.0117007 0.0493381 -0.173718
-0.0267235 0.0744835 -0.211757
-0.0587441 0.0160596 -0.0358034
-0.11538 -0.0868063 0.279719
-0.163642 0.038871 0.0350558
-0.247171 0.00181436 0.225682
0.295592 -0.191299 0.00915947
0.25459 -0.105041 -0.153872
0.207518 -0.225612 0.191887
0.152405 -0.0141926 -0.235357
0.0265355 0.0834702 -0.322514
-0.0152141 0.0399977 -0.153987
-0.0277517 0.0284845 -0.113184
-0.0506959 0.0163707 -0.0580372
-0.0657234 0.0182531 -0.0497344
-0.133063 -0.0864593 0.27622
-0.158156 0.0437654 0.00321064
-0.179764 0.04581 0.0241495
-0.22187 0.0476422 0.0870555
-0.323796 0.0762448 0.125879
0.268382 -0.124462 -0.12433
0.216392 -0.226341 0.182103
0.156907 -0.216338 0.231128
0.0851406 -0.190706 0.247104
-0.0119474 0.0887463 -0.287869
-0.0373167 0.0304245 -0.122237
-0.0868312 -0.113504 0.278105
-0.141458 -0.083244 0.271956
-0.179884 -0.0578342 0.260532
-0.209902 0.0524992 0.0334494
-0.253604 0.0522724 0.0908694
-0.342963 0.0715532 0.151461
0.273486 -0.150847 -0.0880889
0.23016 -0.229533 0.146445
0.179159 -0.228655 0.211951
0.0719501 0.0492251 -0.312709
0.00166697 0.0866265 -0.319516
-0.0399864 0.0306648 -0.125124
-0.082411 -0.122192 0.277996
-0.138687 -0.0908234 0.272369
-0.191987 -0.0505082 0.249386
-0.213738 0.0537349 0.0284695
-0.243533 0.0486979 0.0809512
-0.2767 0.0575146 0.0992903
-0.30524 0.0294615 0.19516
0.278195 -0.182694 -0.0284249
0.242912 -0.110623 -0.155338
0.213176 -0.232876 0.171218
0.184121 -0.0513421 -0.220812
0.0987639 0.00802733 -0.259458
0.0555947 -0.185348 0.253193
-0.00268581 0.08676 -0.314934
-0.0337762 0.0485725 -0.19511
-0.0712702 0.0187019 -0.0737675
-0.0967642 0.0212139 -0.0550176
-0.15252 0.039862 -0.0252386
-0.195462 0.0519094 -0.00715253
-0.276033 0.0560808 0.0938328
0.275988 -0.190078 -0.0181948
0.263616 -0.2164 0.0575828
0.253514 -0.222687 0.0908123
0.212409 -0.234399 0.167626
0.180025 -0.0520611 -0.224147
0.10177 -0.206766 0.239263
0.0744316 0.0394749 -0.30907
-0.0362256 -0.153621 0.275834
-0.0506095 0.0293741 -0.137682
-0.0948678 0.0244773 -0.0791872
-0.132393 -0.103742 0.27157
-0.18197 0.0482984 -0.0240652
-0.26012 0.0509372 0.0658521
-0.336999 0.0494267 0.162963
0.252057 -0.222413 0.0657115
0.226044 -0.233225 0.132337
0.202138 -0.0787234 -0.200372
0.172137 -0.236357 0.204073
0.101731 -0.21685 0.236124
0.0431624 0.060353 -0.334025
-0.0453714 0.0622499 -0.227927
-0.0667732 0.0262968 -0.128934
-0.10282 -0.121531 0.272441
-0.14587 -0.0995894 0.266034
-0.189451 -0.0658149 0.248573
-0.264079 0.050314 0.0611435
-0.338128 0.0464843 0.161739
0.262305 -0.173227 -0.0618213
0.221831 -0.109527 -0.16912
0.175686 -0.0586652 -0.225403
0.0831426 -0.211511 0.240053
0.000921192 -0.179435 0.265398
-0.0500833 0.0273109 -0.157288
-0.0805006 0.0211256 -0.111816
-0.121789 0.030977 -0.0801601
-0.160056 0.0490079 -0.0795023
-0.180701 0.0496237 -0.0503332
-0.244509 0.054065 0.00803669
-0.355117 0.0667691 0.123795
0.243916 -0.226287 0.0749976
0.203788 -0.0977328 -0.187733
0.158403 -0.0533486 -0.235844
0.0304837 0.0559367 -0.341304
-0.0446533 0.0319204 -0.180736
-0.0802799 0.0234648 -0.128872
-0.192373 0.0526287 -0.0618331
-0.25688 -0.0326277 0.219041
-0.275265 0.0498363 0.0589956
-0.323216 0.0581461 0.0942694
0.255441 -0.186191 -0.0451234
0.230378 -0.232177 0.0859569
0.211272 -0.106473 -0.17663
0.129511 -0.0372907 -0.251854
0.0702903 0.0216148 -0.310418
0.0247676 -0.195496 0.258695
-0.0549311 0.040943 -0.214376
-0.11206 0.0234204 -0.106418
-0.232804 -0.0536683 0.226208
-0.268834 0.049743 0.0326009
-0.331663 0.0561807 0.0894147
0.234056 -0.230098 0.0653204
0.21415 -0.129984 -0.151893
0.184776 -0.0938171 -0.200127
0.0915046 -0.226169 0.234345
-0.00933708 -0.188594 0.261964
-0.0552626 0.0367956 -0.209807
-0.0897804 -0.149703 0.269489
-0.125058 -0.13013 0.265274
-0.17665 -0.0984416 0.250472
-0.198927 0.0486203 -0.067256
-0.251788 0.0551507 -0.00783676
-0.280134 0.0498435 0.0401245
-0.305334 -0.00219846 0.188975
0.2381 -0.217227 0.0100774
0.212271 -0.240563 0.102734
0.167739 -0.0751476 -0.221758
0.0658473 0.00262628 -0.302099
-0.0277979 0.0625634 -0.319877
-0.106267 -0.142214 0.266261
-0.116987 0.0786548 -0.255567
-0.152473 0.0744994 -0.198027
-0.204306 -0.0817868 0.239389
-0.213407 0.0451617 -0.0581589
-0.296558 0.0485626 0.0464718
-0.356981 0.0392684 0.138818
0.235914 -0.194512 -0.0469534
0.220111 -0.15351 -0.122612
0.19505 -0.250143 0.135686
0.142567 -0.0636872 -0.238191
0.0655458 0.00667583 -0.306365
0.000119793 -0.198304 0.258276
-0.0900069 0.0224749 -0.153553
-0.119146 0.0703577 -0.243197
-0.154451 0.0787784 -0.216013
-0.219705 -0.0776351 0.236468
-0.259271 0.0534973 -0.0195077
-0.33009 0.0458918 0.0742444
0.23589 -0.207399 -0.0215598
0.210011 -0.242977 0.0864301
0.181029 -0.106412 -0.191751
0.109176 -0.245148 0.22254
0.0189019 0.0396371 -0.349845
-0.0486248 0.0511059 -0.289143
-0.0950982 0.0781926 -0.301748
-0.106482 0.0762038 -0.275449
-0.129094 0.0846819 -0.271429
-0.183062 -0.1069 0.250317
-0.209567 0.0378502 -0.0636805
-0.229783 0.0753886 -0.125828
-0.31492 0.0442374 0.0486906
0.228508 -0.218717 -0.00310554
0.207448 -0.244146 0.0926428
0.179373 -0.255686 0.151005
0.140354 -0.0717406 -0.23509
0.0721041 -0.0202739 -0.275293
0.0105221 -0.214283 0.252543
-0.0655187 0.0255273 -0.21647
-0.103003 -0.157806 0.26371
-0.115342 0.0922287 -0.314019
-0.130669 0.0890309 -0.298136
-0.15554 -0.129791 0.2581
-0.180293 0.0568343 -0.151458
-0.205853 -0.0930474 0.239965
-0.229403 0.0799765 -0.152494
-0.307192 -0.0175755 0.179455
-0.358748 0.0283966 0.131218
0.218214 -0.234143 0.0357455
0.189235 -0.139405 -0.157403
0.152778 -0.0931919 -0.216514
0.0787065 -0.244057 0.227391
0.0456579 0.0139788 -0.33556
-0.0482935 -0.192091 0.261005
-0.0748085 0.0199778 -0.209299
-0.0953377 0.0150316 -0.168755
-0.12385 0.0931397 -0.324452
-0.136564 0.0843663 -0.284101
-0.154571 0.0771413 -0.240238
-0.190071 0.0545659 -0.14386
-0.233667 0.0781957 -0.148071
-0.305975 -0.0242711 0.178732
-0.351943 0.0183151 0.134864
0.213415 -0.184256 -0.0870503
0.134717 -0.259678 0.18475
0.0985371 -0.0499769 -0.263339
0.0381707 0.0129796 -0.341275
-0.0409334 0.0456618 -0.324783
-0.088889 0.016188 -0.200436
-0.115194 -0.161757 0.257777
-0.139288 0.0864316 -0.300608
-0.191048 0.0510952 -0.145552
-0.220625 0.0824654 -0.1877
-0.242467 -0.0824951 0.22835
-0.348852 0.0108335 0.133531
0.209925 -0.194943 -0.0720121
0.164483 -0.261964 0.154548
0.0942444 -0.0520462 -0.264362
-0.00912342 -0.221704 0.252319
-0.0738155 0.0229981 -0.241631
-0.0914631 0.0157295 -0.196936
-0.108 0.0868495 -0.345395
-0.154104 0.0484065 -0.197582
-0.177322 0.0817136 -0.252079
-0.199806 0.0263133 -0.0890723
-0.219383 0.0827375 -0.206537
-0.257123 0.0592986 -0.109524
-0.326159 -0.0098382 0.154055
0.205133 -0.234677 0.00873721
0.189621 -0.255995 0.0914121
0.149439 -0.113128 -0.203009
0.0554032 -0.0317425 -0.284056
-0.00352685 0.0302378 -0.35845
-0.0635433 -0.196945 0.258515
-0.083178 0.0138074 -0.216801
-0.10747 0.00980814 -0.18747
-0.125847 0.0898627 -0.346166
-0.144823 0.00883439 -0.135545
-0.167487 0.0477414 -0.188545
-0.177603 0.0814814 -0.262772
-0.213193 -0.117358 0.245871
-0.243707 0.0770458 -0.164862
-0.282943 0.0416355 -0.0426367
-0.322064 0.0367541 0.0322009
-0.375992 0.0389235 0.0889775
0.192067 -0.174804 -0.114633
0.159919 -0.135043 -0.177459
0.111007 -0.0809618 -0.241928
0.0760908 -0.0492546 -0.272814
-0.00811012 -0.226318 0.249637
-0.0876258 0.0115753 -0.217517
-0.0940454 0.0731265 -0.352878
-0.126871 0.00871275 -0.159946
-0.147283 -0.148744 0.224078
-0.15777 -0.141947 0.221887
-0.16175 0.042518 -0.200398
-0.184248 0.0215323 -0.128889
-0.204674 0.0822477 -0.248603
-0.220634 0.0196211 -0.0721305
-0.238032 0.0837749 -0.207519
-0.259088 0.051864 -0.109686
-0.29469 -0.0513428 0.180898
-0.355644 0.00847913 0.117195
0.199472 -0.227342 -0.0212447
0.175386 -0.159175 -0.144705
0.149134 -0.132961 -0.185167
0.110682 -0.267619 0.187719
0.0369009 -0.00737993 -0.336433
-0.0704419 0.0251398 -0.289595
-0.0989567 -0.186235 0.253681
-0.119945 0.038741 -0.254749
-0.136852 0.089296 -0.349193
-0.161648 0.0791627 -0.295396
-0.211186 0.0171735 -0.0910937
-0.25555 -0.0910944 0.219739
-0.274258 0.063576 -0.12269
-0.35609 0.0285956 0.0564434
0.193335 -0.240284 0.00753645
0.153628 -0.139048 -0.176868
0.128466 -0.108941 -0.215836
0.0911507 -0.0786522 -0.249489
0.0670174 -0.0528367 -0.275409
0.0350121 -0.0133946 -0.333725
-0.0855337 0.00798254 -0.232419
-0.108717 -0.187859 0.247978
-0.135477 -0.157297 0.213787
-0.170224 0.0348152 -0.203108
-0.197436 0.0366076 -0.168541
-0.222248 0.0839813 -0.255103
-0.252164 0.0256826 -0.0733423
-0.287428 -0.0672683 0.180801
-0.326158 -0.0295203 0.139446
-0.376505 0.0229633 0.0789799
0.186559 -0.243983 0.00863275
0.178236 -0.186465 -0.106865
0.151953 -0.148426 -0.168281
0.0981785 -0.089288 -0.240186
0.0184264 -0.249904 0.232498
-0.0865943 0.0386628 -0.315715
-0.0873606 0.0633933 -0.368937
-0.11741 -0.18483 0.24403
-0.125101 0.00334141 -0.192659
-0.137104 0.0858653 -0.366609
-0.186208 0.088644 -0.320008
-0.218621 0.0320131 -0.140646
-0.246104 0.0404551 -0.130778
-0.263078 0.0254275 -0.0731851
-0.310911 -0.0481101 0.163404
-0.37611 0.0224809 0.0761033
0.178543 -0.202343 -0.0841936
0.159342 -0.273041 0.10866
0.0826226 -0.0822395 -0.250334
0.0389475 -0.034551 -0.311283
-0.020323 0.020886 -0.363863
-0.0760544 0.0139293 -0.287478
-0.081216 0.0514184 -0.364625
-0.122268 0.0811482 -0.38812
-0.145045 -0.175822 0.240887
-0.156467 -0.157154 0.220861
-0.166726 0.0036911 -0.13932
-0.198106 0.0266148 -0.170181
-0.235427 0.0821136 -0.249951
-0.277035 -0.087597 0.193892
-0.289698 0.0692801 -0.157778
-0.319969 0.0304908 -0.0260893
-0.348502 0.0242143 0.0217471
-0.374828 0.0156828 0.0795779
0.174222 -0.207931 -0.0784982
0.154659 -0.171191 -0.141971
0.116293 -0.122645 -0.208081
0.0230459 -0.0240882 -0.333955
-0.00143674 0.000398397 -0.361429
-0.0799518 -0.209949 0.239628
-0.0994566 -0.00156183 -0.237574
-0.143139 -0.165177 0.206691
-0.174166 0.0843842 -0.337178
-0.195003 0.0225197 -0.173808
-0.247703 -0.118099 0.221372
-0.267598 0.0412811 -0.12651
-0.306552 -0.0602342 0.16119
-0.339107 -0.025359 0.115192
-0.372374 0.0181863 0.0419751
0.171121 -0.211239 -0.0753562
0.1456 -0.278704 0.114209
0.101609 -0.119245 -0.215486
0.0349721 -0.0472046 -0.301852
-0.0379944 -0.233932 0.231073
-0.0790882 0.0427835 -0.374769
-0.0897974 -0.0038895 -0.25422
-0.118873 0.0252547 -0.281573
-0.141752 0.0818364 -0.390666
-0.159097 0.0840153 -0.374165
-0.185585 0.0246339 -0.211101
-0.228363 -0.136386 0.227322
-0.264217 -0.108283 0.206495
-0.274788 0.0366913 -0.120657
-0.299042 -0.0729683 0.163319
-0.320789 0.0281713 -0.0442736
-0.337418 0.0265489 -0.023599
-0.375928 0.0154136 0.0448239
0.166278 -0.241219 -0.0181075
0.129984 -0.281677 0.127838
0.0659383 -0.0883276 -0.252597
-0.0296475 -0.241195 0.224139
-0.085739 -0.212798 0.232499
-0.096663 0.0173201 -0.308795
-0.116877 -0.00358694 -0.226119
-0.148563 -0.181689 0.236365
-0.185675 0.00495499 -0.17464
-0.20033 0.0710542 -0.305704
-0.235263 0.0231373 -0.142817
-0.302854 -0.0695542 0.159702
-0.332016 -0.0405233 0.119126
0.162272 -0.250983 0.003665
0.15819 -0.258454 0.0205282
0.146801 -0.189522 -0.123258
0.0986549 -0.128555 -0.208461
0.0210857 -0.0439646 -0.319456
-0.0533425 0.0137262 -0.35245
-0.0825045 -0.0056162 -0.28231
-0.0793072 0.0445493 -0.39728
-0.109511 -0.00679276 -0.239557
-0.130968 0.0178468 -0.276076
-0.157046 0.01654 -0.240008
-0.186215 -0.00068185 -0.161778
-0.199516 0.0786527 -0.331245
-0.2487 0.0151461 -0.119311
-0.27384 0.016591 -0.10347
-0.29371 0.0203647 -0.0900847
-0.312768 0.0444999 -0.114294
-0.339428 0.0265883 -0.0431605
0.154441 -0.261419 0.0264099
0.141207 -0.278226 0.0816736
0.107089 -0.145593 -0.1904
0.0171741 -0.267298 0.205104
-0.0471499 -0.240148 0.216982
-0.0766381 0.0461044 -0.420998
-0.116394 0.0724766 -0.434882
-0.15369 0.00983335 -0.238966
-0.181486 0.00993566 -0.204188
-0.207469 0.0719453 -0.315223
-0.283162 0.0646807 -0.208825
-0.305978 0.036097 -0.114811
-0.3585 -0.0176326 0.0808598
0.147855 -0.25413 0.00318101
0.139579 -0.217377 -0.0803487
0.113419 -0.15815 -0.175515
0.0750941 -0.284077 0.163202
0.0444947 -0.0894311 -0.26149
-0.00120728 -0.262988 0.204558
-0.0478314 -0.24223 0.213248
-0.0816272 0.0100735 -0.339281
-0.093736 0.00763503 -0.324064
-0.109241 -0.0102502 -0.251002
-0.122134 -0.00897663 -0.240066
-0.138065 -0.20148 0.22271
-0.144116 -0.0055967 -0.227531
-0.154041 0.00245634 -0.233964
-0.182748 0.0090759 -0.219671
-0.230651 0.072366 -0.305946
-0.246458 0.076936 -0.307989
-0.275628 0.0166499 -0.116
-0.299482 0.0652585 -0.197776
-0.316315 0.0221321 -0.076473
-0.325008 0.0436695 -0.114476
-0.330755 0.0668547 -0.178371
-0.360955 -0.0228292 0.0689263
-0.37606 -0.0064431 0.0491284
0.139444 -0.22378 -0.0691999
0.125999 -0.283612 0.0909877
0.1053 -0.162727 -0.172286
0.055631 -0.282955 0.168606
0.0125625 -0.055317 -0.315475
-0.0699042 0.00899252 -0.368289
-0.0833726 -0.001185 -0.318893
-0.117137 -0.21235 0.220362
-0.162315 0.0764476 -0.417916
-0.203988 0.077791 -0.36768
-0.254518 -0.133147 0.19997
-0.283176 0.0616644 -0.233327
-0.321822 -0.0640675 0.110945
-0.349842 0.0270493 -0.0740494
-0.370611 -0.0142503 0.0531617
-0.383284 0.0175878 -0.00937105
0.135281 -0.24776 -0.0264631
0.0987062 -0.290162 0.12733
0.0355324 -0.279101 0.175937
0.0036232 -0.0531441 -0.324437
-0.0460196 -0.0066356 -0.370266
-0.0702502 0.0117244 -0.378048
-0.0866411 -0.0139377 -0.303608
-0.148177 -0.203174 0.218419
-0.209605 0.0763867 -0.36985
-0.273003 0.0702876 -0.27442
-0.326895 0.0228083 -0.0970139
-0.352086 -0.0365121 0.0658475
-0.359951 0.0628806 -0.151992
-0.383343 0.0309309 -0.0422085
0.127601 -0.270152 0.0318519
0.119635 -0.27971 0.0643253
0.0703728 -0.143996 -0.202093
0.0455356 -0.117437 -0.235907
0.00869308 -0.0688068 -0.304954
-0.0666136 -0.00613258 -0.356867
-0.0757873 0.0467892 -0.47514
-0.10868 -0.224325 0.210109
-0.138509 0.0707986 -0.452999
-0.206548 0.0754794 -0.382673
-0.267925 -0.1296 0.182711
-0.310706 -0.0803107 0.117413
-0.346777 0.0239788 -0.0903495
-0.36681 -0.0250308 0.0440194
-0.381491 0.0523091 -0.117701
0.124316 -0.254827 -0.0192703
0.117783 -0.225447 -0.0823425
0.0986816 -0.289024 0.0921532
0.0699132 -0.154033 -0.192612
0.0299577 -0.101987 -0.258409
-0.0229174 -0.0347487 -0.359336
-0.0714679 0.00289754 -0.390354
-0.0793012 0.0357872 -0.44946
-0.136237 -0.216523 0.208321
-0.22263 -0.166442 0.201848
-0.269043 0.0726158 -0.313099
-0.311535 0.0597988 -0.233712
-0.362086 0.03842 -0.106744
-0.383784 -0.00853428 0.0131471
0.119288 -0.236833 -0.0589535
0.0908004 -0.291569 0.099691
0.0729715 -0.165261 -0.180915
0.0317185 -0.284177 0.156881
-0.015358 -0.0501984 -0.34066
-0.0585268 0.0496506 -0.521052
-0.0747499 0.0373413 -0.474014
-0.105738 0.0663124 -0.508732
-0.135019 0.0682899 -0.470542
-0.188433 0.0715056 -0.423211
-0.23346 -0.162182 0.19147
-0.255953 0.0705529 -0.33388
-0.292666 -0.109438 0.132456
-0.354167 -0.043251 0.0533511
-0.382332 -0.0116895 0.0146279
-0.398172 0.0516797 -0.115583
0.111595 -0.251406 -0.0354106
0.0970845 -0.20277 -0.130512
0.00745267 -0.27884 0.165699
-0.0338762 -0.265852 0.179303
-0.0532466 -0.258961 0.182055
-0.0533988 0.0609376 -0.567381
-0.0620524 0.0719276 -0.589962
-0.0979546 0.0672541 -0.528571
-0.164007 0.0681949 -0.453463
-0.257865 0.0697036 -0.3389
-0.302038 -0.0995292 0.12285
-0.349735 -0.0503469 0.0578361
-0.370939 0.0684046 -0.202535
-0.385379 0.0655543 -0.170577
0.109171 -0.250507 -0.0394994
0.0988592 -0.219449 -0.105032
0.0452055 -0.150791 -0.204549
-0.012513 -0.275966 0.163051
-0.0309039 0.0772385 -0.648279
-0.0493065 0.0614327 -0.581185
-0.0718819 -0.016189 -0.375334
-0.115503 -0.236092 0.194482
-0.161191 -0.214057 0.199809
-0.264194 0.0678696 -0.344753
-0.283261 0.0673501 -0.31788
-0.313905 0.0622605 -0.270283
-0.338329 0.0667765 -0.256789
-0.366229 -0.039852 0.0353196
-0.402746 0.0108286 -0.0322328
0.0982073 -0.261007 -0.0201027
0.0718063 -0.180483 -0.166963
0.0358499 -0.146505 -0.211572
0.000890109 -0.103904 -0.272584
-0.0289864 -0.0574647 -0.344447
-0.0546855 0.0511601 -0.570763
-0.0837788 0.0123094 -0.438681
-0.108885 0.062201 -0.526433
-0.187634 -0.202381 0.193429
-0.227063 0.0692577 -0.391795
-0.268856 0.0665561 -0.35013
-0.297296 -0.11838 0.119396
-0.322838 0.0634679 -0.273982
-0.362838 0.0654988 -0.220466
-0.390607 -0.00959503 -0.00829811
0.090421 -0.279534 0.0284407
0.0851407 -0.228051 -0.0973548
0.0564759 -0.294093 0.100627
0.0261266 -0.143205 -0.217768
-0.0139917 -0.0879509 -0.301042
-0.0312845 -0.0619176 -0.342478
-0.0384145 -0.0473021 -0.359479
-0.0542215 0.0538925 -0.581322
-0.0645918 0.0338871 -0.522215
-0.0882555 -0.250793 0.181757
-0.116951 -0.241956 0.185823
-0.156816 -0.221195 0.19348
-0.194215 0.0642285 -0.452264
-0.214579 0.0674649 -0.421301
-0.28193 0.0653968 -0.334684
-0.376428 -0.0324477 0.00422476
-0.393061 -0.010591 -0.0186837
-0.402215 0.00268217 -0.0328855
-0.411405 0.0223492 -0.078988
0.0807119 -0.264078 -0.0167478
0.0790302 -0.219389 -0.113079
0.0593586 -0.290585 0.0733106
-0.00842784 -0.114503 -0.261132
-0.0518264 0.0758807 -0.654907
-0.0843549 -0.257238 0.171182
-0.20571 0.0660952 -0.439361
-0.249551 -0.169983 0.157862
-0.27747 0.064671 -0.350505
-0.313533 -0.104793 0.0977792
-0.351183 0.0689182 -0.27308
-0.373875 0.0803786 -0.278509
-0.407843 0.0291005 -0.111078
0.0753996 -0.252326 -0.0530375
0.0643994 -0.278935 0.0292379
0.0552702 -0.191771 -0.159983
0.0358571 -0.171046 -0.185318
0.00945362 -0.144328 -0.220348
-0.0514659 -0.271436 0.154628
-0.0581637 0.0677812 -0.642323
-0.0710421 0.0418959 -0.560105
-0.100059 0.00441471 -0.438621
-0.124514 -0.244418 0.176028
-0.145808 0.0507806 -0.486977
-0.203765 0.0635979 -0.452202
-0.286303 -0.142121 0.139372
-0.33971 0.0629891 -0.280473
-0.387896 -0.0235321 -0.0260806
-0.413271 0.02582 -0.115118
-0.422344 0.0396327 -0.122797
0.0655522 -0.26415 -0.0215448
0.043 -0.288517 0.0635631
0.025125 -0.168969 -0.190014
-0.0221129 -0.118344 -0.262966
-0.0401461 -0.0714267 -0.342077
-0.0702951 -0.0418545 -0.370763
-0.0953563 0.0257605 -0.502523
-0.121914 -0.248753 0.169156
-0.165 0.053742 -0.49157
-0.227296 -0.188662 0.158013
-0.28554 -0.147084 0.136411
-0.362878 0.0723708 -0.296518
-0.400184 -0.0106444 -0.0563356
-0.426848 0.0760061 -0.221156
0.0638308 -0.260184 -0.0372052
0.0444013 -0.286592 0.0478567
0.0171515 -0.28923 0.0898923
-0.0239447 -0.121073 -0.260825
-0.0485285 -0.0738914 -0.347254
-0.0874977 0.0471531 -0.575732
-0.103097 0.0136413 -0.470032
-0.108848 0.00702586 -0.449839
-0.112462 0.022466 -0.491664
-0.135843 0.0516782 -0.532376
-0.218279 0.0612558 -0.457971
-0.255878 0.0612908 -0.409914
-0.332616 -0.110789 0.0859935
-0.367617 -0.0727905 0.0405344
-0.394834 0.0827882 -0.288378
-0.421001 0.0263066 -0.125545
-0.437354 0.0788399 -0.234884
0.0512899 -0.269424 -0.0127784
0.0205819 -0.18443 -0.174752
-0.019101 -0.139492 -0.232822
-0.0498622 -0.277902 0.127398
-0.0981819 0.0419251 -0.560975
-0.106231 0.0558914 -0.589599
-0.119393 0.0286079 -0.502462
-0.21301 -0.205533 0.153223
-0.23209 0.0616224 -0.442255
-0.301585 -0.139579 0.113834
-0.370495 -0.0709758 0.0348689
-0.404368 0.0839611 -0.287305
-0.433062 0.0812571 -0.249372
0.0517901 -0.25739 -0.0525819
0.0431323 -0.232338 -0.106671
0.0105516 -0.287684 0.0738933
-0.0193491 -0.284594 0.104193
-0.0258885 -0.135437 -0.24169
-0.0393088 -0.11671 -0.279082
-0.0870588 -0.0463826 -0.38375
-0.132105 0.00810213 -0.456973
-0.200504 0.0554276 -0.482003
-0.296026 -0.148436 0.117168
-0.364608 -0.0846374 0.0479863
-0.380739 -0.0439454 -0.0280125
-0.426918 0.0257781 -0.136958
-0.44145 0.0542987 -0.191459
0.0295778 -0.286602 0.0363879
-0.0352821 -0.284 0.100606
-0.077615 -0.060513 -0.370431
-0.127439 -0.022986 -0.407597
-0.147365 0.0135878 -0.465931
-0.179882 0.0517305 -0.508137
-0.262272 0.0571151 -0.423708
-0.334636 0.05395 -0.338642
-0.399095 0.0782334 -0.304453
-0.44241 0.0561414 -0.20099
0.0289325 -0.282098 0.0162687
-0.000193211 -0.288275 0.0677593
-0.0279032 -0.285459 0.0939742
-0.0423301 -0.135208 -0.254443
-0.0725962 -0.0795127 -0.349171
-0.104412 -0.268122 0.138518
-0.146291 0.00183493 -0.447314
-0.171899 0.0434421 -0.508987
-0.224038 -0.204521 0.137952
-0.265239 -0.178707 0.120811
-0.309693 0.0533968 -0.364302
-0.367847 -0.0866943 0.0247556
-0.381118 -0.0494761 -0.0399216
-0.39418 0.0746572 -0.314341
-0.423311 0.0290283 -0.183824
-0.432371 0.0473605 -0.206922
-0.440397 0.0448634 -0.183156
0.019508 -0.229426 -0.113347
-0.0444686 -0.284839 0.0942447
-0.0532486 -0.121223 -0.287715
-0.0908548 -0.274716 0.128871
-0.138475 -0.256871 0.138784
-0.157003 0.00205649 -0.443888
-0.167031 0.0240917 -0.482727
-0.186119 0.0405988 -0.497868
-0.252502 -0.189852 0.122793
-0.338989 -0.119677 0.0615819
-0.376778 -0.072393 0.00279121
-0.391161 -0.0302088 -0.0796277
-0.406262 0.0748297 -0.320423
-0.430287 0.0513513 -0.233347
-0.00129311 -0.288488 0.032016
-0.0187308 -0.288554 0.0681712
-0.0436205 -0.160867 -0.208773
-0.0624623 -0.0994614 -0.326038
-0.113957 -0.269027 0.12644
-0.164329 -0.00619346 -0.428435
-0.178192 0.00857654 -0.454536
-0.189687 0.0337993 -0.490216
-0.250438 0.0467921 -0.459625
-0.266118 0.0273164 -0.391963
-0.299838 -0.157094 0.0903635
-0.336872 -0.123316 0.0561827
-0.380069 -0.0562373 -0.046751
-0.398878 -0.00817274 -0.140653
-0.431622 0.0524565 -0.242729
0.0100311 -0.280945 -0.00702206
-0.0264325 -0.290373 0.0547242
-0.0573021 -0.150694 -0.228564
-0.0661214 -0.114602 -0.303602
-0.0848807 -0.108196 -0.304071
-0.143969 -0.257652 0.129134
-0.180783 0.00726468 -0.451646
-0.208541 0.0386917 -0.487157
-0.23706 -0.204071 0.114296
-0.274569 -0.178832 0.0986595
-0.291106 0.0506268 -0.422996
-0.337311 -0.123119 0.0526359
-0.357249 0.0501155 -0.344838
-0.387854 -0.0374686 -0.0996315
-0.422014 0.0381381 -0.235086
0.0088277 -0.260284 -0.063683
0.00248489 -0.249531 -0.0849318
-0.047774 -0.287983 0.0784135
-0.0648586 -0.128676 -0.286617
-0.0971278 -0.278755 0.107511
-0.115713 -0.0737116 -0.358972
-0.144896 -0.259275 0.123347
-0.168293 -0.0253955 -0.404299
-0.201614 0.0112179 -0.449027
-0.222852 0.0316114 -0.466851
-0.272599 -0.181768 0.0955526
-0.283152 0.017076 -0.367276
-0.324216 -0.143621 0.0646503
-0.348526 -0.112645 0.0182069
-0.386565 -0.0410914 -0.108795
-0.411612 0.021765 -0.221548
-0.429292 0.0742395 -0.32964
-0.00355099 -0.247488 -0.0895893
-0.0301507 -0.290885 0.0472233
-0.0468759 -0.190899 -0.168995
-0.065996 -0.167142 -0.203069
-0.104734 -0.0964179 -0.332983
-0.148635 -0.260192 0.114656
-0.17686 -0.0297406 -0.395526
-0.186837 -0.0145808 -0.419807
-0.213412 0.0120634 -0.446646
-0.250882 -0.20117 0.0968615
-0.292076 0.0466548 -0.443227
-0.343672 -0.118799 0.017596
-0.376077 -0.0713428 -0.051403
-0.395587 -0.00742655 -0.178249
-0.430944 0.0539834 -0.283318
-0.00868022 -0.283039 -0.0166923
-0.0189594 -0.239875 -0.103634
-0.0438438 -0.291455 0.0470514
-0.0517087 -0.19885 -0.159321
-0.0741226 -0.170912 -0.197108
-0.101256 -0.110913 -0.306947
-0.13653 -0.0665325 -0.369669
-0.178235 -0.246877 0.111523
-0.214814 -0.00444346 -0.423087
-0.275257 -0.185253 0.0790149
-0.285589 0.0256267 -0.409095
-0.310868 -0.154657 0.0471157
-0.357487 -0.100038 -0.0213886
-0.364107 0.0470566 -0.353345
-0.388882 0.0574169 -0.347314
-0.0527763 -0.206477 -0.151352
-0.0779926 -0.140049 -0.277257
-0.128345 -0.0832623 -0.352171
-0.254066 -0.2036 0.0858927
-0.255582 0.0268767 -0.453323
-0.282126 -0.0740593 -0.184773
-0.303922 -0.0626881 -0.197256
-0.325159 0.0410789 -0.405784
-0.342824 -0.111846 -0.0224869
-0.361316 -0.0971974 -0.0387989
-0.376209 -0.0767578 -0.0676502
-0.388975 -0.0217123 -0.179733
-0.402874 0.00629528 -0.221519
-0.426295 0.0474385 -0.295796
-0.0242699 -0.288308 -0.00751729
-0.0295942 -0.244479 -0.0976632
-0.0445324 -0.291567 0.0356069
-0.072945 -0.205153 -0.148367
-0.0818459 -0.158705 -0.238594
-0.0896811 -0.176929 -0.18826
-0.122861 -0.276342 0.088972
-0.140782 -0.269088 0.0930773
-0.173731 -0.252515 0.100323
-0.191419 -0.243973 0.0869836
-0.222179 -0.0112366 -0.41454
-0.257919 0.0134649 -0.435932
-0.272322 -0.191003 0.0630952
-0.290845 -0.172455 0.0467674
-0.300796 -0.0624519 -0.209584
-0.314423 -0.128825 -0.0289682
-0.322056 -0.134467 -0.00940767
-0.326495 -0.118089 -0.0377196
-0.339814 -0.0972968 -0.0728577
-0.35375 -0.101521 -0.044161
-0.360633 -0.0529175 -0.152825
-0.363585 -0.046727 -0.165026
-0.377889 -0.0217627 -0.208937
-0.383231 -0.0298986 -0.174196
-0.391051 -0.010537 -0.210967
-0.397259 -0.00340914 -0.213703
-0.413641 0.0597681 -0.353734
-0.427645 0.0510668 -0.317399
-0.0355137 -0.286676 -0.0101609
-0.0487914 -0.243457 -0.0932798
-0.0983828 -0.284641 0.0653343
-0.110881 -0.122891 -0.299047
-0.147697 -0.0846215 -0.349448
-0.188231 -0.0566509 -0.369682
-0.215485 -0.0316449 -0.393218
-0.269804 -0.193399 0.0579566
-0.288604 -0.150583 -0.0337448
-0.296659 -0.168908 0.0407613
-0.298204 0.0165507 -0.402098
-0.317535 -0.150452 0.012055
-0.333851 0.0342438 -0.402614
-0.346736 -0.0950821 -0.0754653
-0.365652 -0.0422683 -0.179242
-0.382529 -0.0641636 -0.103749
-0.418825 0.0419823 -0.315689
-0.0512591 -0.268129 -0.0479985
-0.060608 -0.232523 -0.111136
-0.0728451 -0.220701 -0.127838
-0.0885075 -0.208182 -0.143458
-0.100773 -0.13951 -0.282627
-0.121256 -0.276683 0.0628026
-0.159491 -0.082439 -0.350095
-0.184387 -0.250135 0.0673569
-0.216259 -0.0391037 -0.384824
-0.258391 -0.202845 0.0606722
-0.278831 -0.185566 0.0402319
-0.287331 -0.156244 -0.0323353
-0.296298 -0.17042 0.0248367
-0.29924 0.0231536 -0.425911
-0.311606 -0.0667584 -0.211884
-0.34396 -0.0712465 -0.153146
-0.362542 -0.0805955 -0.105826
-0.380496 -0.0625976 -0.126813
-0.398621 0.00866374 -0.270197
-0.0565422 -0.281432 -0.0184588
-0.0689182 -0.240482 -0.0972595
-0.0861181 -0.227737 -0.115007
-0.0928155 -0.161887 -0.257926
-0.115954 -0.279084 0.0525635
-0.124609 -0.186529 -0.165231
-0.135907 -0.271585 0.0541939
-0.181525 -0.0839245 -0.336381
-0.206964 -0.0596197 -0.362178
-0.231823 -0.0353735 -0.385265
-0.253266 -0.0291532 -0.379148
-0.261172 -0.01772 -0.395666
-0.26962 -0.00560233 -0.408218
-0.291975 -0.17436 0.0214156
-0.30462 -0.16404 0.0075509
-0.304853 0.00421238 -0.391174
-0.315867 -0.0717935 -0.194551
-0.340969 -0.0729166 -0.161233
-0.35827 -0.0435716 -0.215775
-0.394446 0.00476195 -0.280858
-0.40669 0.038153 -0.355959
-0.0711735 -0.270521 -0.0373349
-0.0777171 -0.265424 -0.0456499
-0.082908 -0.252012 -0.0707016
-0.0917207 -0.274225 -0.0112087
-0.101879 -0.279609 0.0211465
-0.100883 -0.164863 -0.249919
-0.119907 -0.276656 0.0391498
-0.129226 -0.190105 -0.159221
-0.156335 -0.10528 -0.325568
-0.181373 -0.0911265 -0.329528
-0.209252 -0.0711611 -0.344723
-0.231683 -0.222855 0.042791
-0.258286 -0.203524 0.0298307
-0.263051 -0.0289932 -0.371766
-0.272172 -0.0249624 -0.36987
-0.287667 -0.0248631 -0.357449
-0.290439 -0.00925857 -0.383657
