ply
format ascii 1.0
comment Created by Open3D
element vertex 1664
property double x
property double y
property double z
end_header
-0.0843857 0.262286 0.0217461
-0.0724628 0.265732 0.053038
-0.0922398 0.255902 -0.00271499
0.0889399 0.271644 0.501171
-0.0959981 0.248309 -0.0237556
-0.0990833 0.245431 -0.0300575
0.0976757 0.261382 0.521178
0.113216 0.253066 0.553302
-0.107621 0.227311 -0.075969
-0.108968 0.223798 -0.0832098
-0.106815 0.226587 -0.0781106
-0.106791 0.22634 -0.0787094
0.12774 0.244162 0.57963
0.130838 0.23958 0.582644
0.130517 0.237009 0.583233
0.0829142 0.220629 0.427535
0.0867171 0.223094 0.439415
0.102618 0.219302 0.489817
0.0853369 0.221262 0.43046
0.104456 0.218883 0.489531
0.108039 0.218165 0.500915
0.115567 0.217885 0.518801
0.114942 0.217579 0.511114
0.11826 0.217261 0.519754
0.122499 0.216829 0.534454
-0.112102 0.178797 -0.159309
0.0754963 0.180484 0.366894
-0.108941 0.152094 -0.178334
-0.105929 0.136006 -0.190062
0.087078 0.131206 0.330021
0.0862428 0.127368 0.326996
0.0869023 0.120033 0.321017
0.0890536 0.114604 0.316537
0.0881157 0.106862 0.309774
0.0846025 0.105824 0.308813
-0.0945528 0.082639 -0.231518
0.085483 0.0890482 0.28925
-0.0816758 0.0360187 -0.248008
0.0776896 0.034816 0.190755
0.0806709 0.0369301 0.192072
0.0782731 0.0327895 0.189691
0.0875525 -0.000174521 0.172438
-0.0710683 -0.0255054 -0.295609
0.0889778 -0.019775 0.159087
-0.0681845 -0.0419259 -0.306175
-0.0686151 -0.0466465 -0.307811
0.0890616 -0.0372465 0.132945
0.0844365 -0.0487099 0.101271
-0.0644874 -0.0622783 -0.31594
-0.0568892 -0.0905334 -0.334054
-0.0528157 -0.0994147 -0.340364
-0.0519928 -0.107754 -0.343027
-0.0464444 -0.127696 -0.351085
-0.0288427 -0.180257 -0.368703
-0.0274381 -0.184963 -0.369129
-0.0225627 -0.193762 -0.37011
-0.022241 -0.201616 -0.369528
-0.0179194 -0.205143 -0.370562
0.0853312 -0.219526 -0.104489
0.0797545 -0.237231 -0.135466
0.00305918 -0.257035 -0.367493
0.0786266 -0.250226 -0.157784
0.0819344 -0.249472 -0.155739
0.00368587 -0.260578 -0.366909
0.0791253 -0.254593 -0.164736
0.0811773 -0.255712 -0.165844
0.0773207 -0.260256 -0.174282
0.07301 -0.283098 -0.218621
0.0337962 -0.309201 -0.356472
0.0425527 -0.323082 -0.350513
0.0421012 -0.32355 -0.350065
0.049819 -0.341808 -0.340514
0.0523639 -0.342417 -0.340945
0.0553593 -0.349196 -0.337057
0.0664946 -0.363573 -0.320391
0.0440315 0.317612 0.424425
0.0446833 0.316467 0.432827
0.0235066 0.311433 0.363622
0.0500343 0.314382 0.442544
0.0541406 0.310475 0.450913
-0.00855812 0.293551 0.259932
-0.0268673 0.284374 0.197236
-0.0121963 0.289831 0.244969
-0.0395611 0.279122 0.154406
-0.0303988 0.283338 0.188551
-0.0283734 0.283885 0.191476
-0.0571854 0.272143 0.0996672
-0.0547876 0.272739 0.102321
-0.0507796 0.275166 0.120376
-0.0471209 0.276503 0.136381
-0.0688807 0.266596 0.0552907
-0.0670392 0.267426 0.0643443
-0.0659993 0.26746 0.0620916
-0.0596544 0.270117 0.082157
-0.0688375 0.267235 0.0659442
-0.0830526 0.26116 0.0133639
-0.0888961 0.253954 -0.0134904
0.103913 0.259073 0.531029
-0.0994291 0.234968 -0.0620851
0.118764 0.252301 0.556176
-0.0988192 0.231533 -0.0723853
0.120813 0.25026 0.563996
-0.104486 0.22008 -0.0947856
-0.104846 0.21013 -0.116943
-0.104551 0.207704 -0.122669
-0.107866 0.210231 -0.112937
0.090424 0.222955 0.440698
0.103811 0.22014 0.474435
0.14289 0.226914 0.584822
-0.107309 0.203275 -0.129073
0.113325 0.2175 0.493392
0.142301 0.223657 0.582308
0.118189 0.217042 0.514953
0.125418 0.216224 0.538744
0.130359 0.216328 0.551295
0.130985 0.216919 0.554936
0.130033 0.214999 0.54399
0.144582 0.218428 0.579429
-0.109509 0.195063 -0.142661
0.133603 0.214052 0.548845
0.138535 0.214328 0.561646
-0.111567 0.1845 -0.154789
-0.109362 0.170059 -0.167728
0.0814181 0.163003 0.353479
-0.10397 0.13788 -0.190314
0.0865672 0.152985 0.346448
-0.0966218 0.108214 -0.217195
-0.0972998 0.109058 -0.21573
-0.0962878 0.0995838 -0.223209
-0.0975665 0.0987984 -0.221594
-0.089036 0.0702839 -0.239554
0.0922947 0.0703544 0.260948
-0.0790978 0.0428229 -0.250655
-0.0816093 0.0431994 -0.248287
-0.0711555 0.0166683 -0.260519
0.0848289 0.0262138 0.186638
0.0860974 0.0221469 0.184921
0.0889582 0.0158129 0.181421
0.0876651 0.00681508 0.17654
-0.068042 -0.00812337 -0.285447
0.0919629 -0.00390034 0.168093
0.0898641 -0.0146434 0.162405
-0.0690828 -0.0298405 -0.299647
0.0976248 -0.0228839 0.15033
0.0949047 -0.0251485 0.149487
0.0950781 -0.0344668 0.137675
0.0954938 -0.0337775 0.138609
0.0857508 -0.0525983 0.0858596
0.0827018 -0.055692 0.0773317
0.0800628 -0.0598899 0.0698229
0.0812647 -0.0710249 0.0568799
0.0816148 -0.0808148 0.0469266
0.0857357 -0.118625 0.015031
0.0897961 -0.129882 0.00792124
-0.0310757 -0.169514 -0.36669
0.0917757 -0.16049 -0.0164522
-0.0223789 -0.181216 -0.37108
-0.0265883 -0.180742 -0.36952
0.0921791 -0.178831 -0.0391861
0.0958751 -0.181412 -0.0439077
0.0967362 -0.181122 -0.0436283
0.0951877 -0.189072 -0.0558629
0.0954292 -0.187568 -0.0535143
0.0915606 -0.190983 -0.058329
0.0888843 -0.227286 -0.119155
0.000967817 -0.239512 -0.370726
0.0865991 -0.232817 -0.128257
0.00449628 -0.243447 -0.37156
0.0830508 -0.254686 -0.163728
0.0790286 -0.269409 -0.189462
0.0267987 -0.29545 -0.361443
0.027977 -0.298151 -0.360546
0.075573 -0.288 -0.227894
0.0327477 -0.304411 -0.358768
0.0736397 -0.301754 -0.250069
0.0717893 -0.324536 -0.275372
0.0507689 -0.328701 -0.349948
0.0575972 -0.33971 -0.344777
0.0627798 -0.348163 -0.339986
0.0632391 -0.352719 -0.335887
0.0702877 -0.361413 -0.324695
0.076305 -0.364739 -0.317695
0.0801642 -0.364395 -0.304406
0.0865497 -0.364296 -0.301661
0.0864354 -0.367006 -0.305115
0.0366409 0.316235 0.400737
0.0286289 0.313776 0.382541
0.0317653 0.314493 0.384206
0.0509783 0.316856 0.437417
0.0133641 0.307561 0.328078
0.0158713 0.309033 0.341684
0.0180308 0.308964 0.33953
0.0197187 0.309254 0.341777
0.00707151 0.302878 0.294164
-0.0172486 0.286443 0.214405
-0.0146466 0.287407 0.224819
-0.0309829 0.282484 0.177712
0.0804662 0.288001 0.480203
-0.0562323 0.271406 0.0896901
-0.052395 0.27279 0.100649
-0.0516257 0.273707 0.107829
-0.0650743 0.267518 0.0606909
-0.0609045 0.268825 0.0724663
-0.0504558 0.272984 0.101434
-0.0728903 0.264567 0.0335145
-0.0795616 0.259854 0.00443929
-0.0826742 0.256742 -0.00936512
0.108666 0.259648 0.532518
-0.0942971 0.240037 -0.0506763
0.14206 0.236545 0.585678
0.102928 0.220987 0.466311
0.110744 0.218929 0.48222
0.116753 0.216574 0.498791
0.145586 0.219968 0.581987
0.0827674 0.209447 0.401109
0.134298 0.212409 0.543493
0.150467 0.21406 0.580342
0.0836869 0.200979 0.388279
-0.104523 0.174977 -0.168769
0.0826806 0.188991 0.374767
-0.104555 0.166555 -0.174405
0.0840191 0.175708 0.362546
-0.102438 0.15589 -0.182129
0.0943889 0.155474 0.348398
0.095798 0.13555 0.332698
-0.0941614 0.103433 -0.223992
0.0956225 0.118245 0.319026
0.0980144 0.0992356 0.300137
0.094154 0.0624254 0.247415
0.0865809 0.0425289 0.198346
-0.0664803 0.0108043 -0.267585
0.0905252 0.0177643 0.182005
-0.0614095 -0.0452433 -0.311781
0.0992414 -0.0390986 0.130246
0.0924003 -0.0457762 0.114324
0.0889401 -0.0499231 0.0976401
0.0880165 -0.052925 0.0854077
0.0877596 -0.0519308 0.0888261
-0.0561847 -0.0696493 -0.323298
0.0847567 -0.0811874 0.0467117
0.0915929 -0.112334 0.0192027
0.093915 -0.118899 0.0144873
0.0929177 -0.13625 0.00315673
-0.0322354 -0.149077 -0.363299
0.0960485 -0.145955 -0.00491941
-0.023438 -0.170434 -0.369943
0.0991303 -0.180156 -0.0425233
0.0995873 -0.187409 -0.0538929
0.0952235 -0.206153 -0.082771
-0.0048776 -0.218325 -0.37242
0.089203 -0.221717 -0.108918
0.0898733 -0.228199 -0.120801
0.08944 -0.233709 -0.129725
0.087768 -0.243933 -0.145955
0.08975 -0.246845 -0.150288
0.0150394 -0.259661 -0.371395
0.0233236 -0.274832 -0.368583
0.087549 -0.269291 -0.18593
0.0811642 -0.274828 -0.199372
0.0557521 -0.333806 -0.348187
0.0646757 -0.35095 -0.337974
0.0469442 0.318695 0.414925
0.0496436 0.318991 0.422417
0.0633201 0.31489 0.44983
0.0670604 0.311288 0.457628
0.0153088 0.305944 0.315305
0.059742 0.3126 0.451167
0.000214746 0.295231 0.261742
0.0767943 0.299409 0.471455
-0.0227796 0.284401 0.186463
-0.0115689 0.287756 0.218839
-0.00795945 0.288836 0.229481
-0.0163514 0.286016 0.201761
-0.0394185 0.27655 0.12592
0.0879258 0.287171 0.479903
-0.0577486 0.270026 0.0797811
-0.0541675 0.270539 0.0816284
-0.0465063 0.273999 0.107908
-0.0438354 0.274606 0.111767
-0.0430764 0.274682 0.112269
-0.0688182 0.265575 0.0416432
-0.0776785 0.26124 0.0106576
-0.0881975 0.244279 -0.0438258
0.11821 0.256641 0.543196
0.133208 0.249538 0.565493
0.137133 0.24337 0.57909
0.138244 0.241495 0.58151
-0.0976294 0.221353 -0.0981842
0.0994588 0.22244 0.452812
0.0922353 0.221252 0.433858
0.108322 0.219725 0.469869
0.092585 0.217043 0.421393
0.107532 0.219599 0.46062
0.0919682 0.210225 0.405703
0.133747 0.20981 0.530398
0.139505 0.209805 0.548214
0.142767 0.209012 0.554442
0.137262 0.206809 0.530135
0.0911195 0.201135 0.392061
0.149175 0.206627 0.563181
0.153753 0.204009 0.566254
0.0937124 0.169949 0.36003
-0.0994983 0.150441 -0.187488
-0.0973062 0.148681 -0.19062
-0.0932198 0.133796 -0.202295
0.0979738 0.151169 0.345112
-0.092844 0.108839 -0.221824
-0.0917385 0.0923147 -0.233409
-0.0835516 0.0731542 -0.246086
-0.0833578 0.0666552 -0.246487
0.100082 0.0792146 0.273941
0.0981941 0.0567722 0.237252
0.0893304 0.0410505 0.196498
0.101591 -0.0143776 0.15561
-0.0624676 -0.0296689 -0.305105
-0.0562075 -0.0415248 -0.315187
0.092582 -0.0512045 0.0938938
-0.0533597 -0.0637575 -0.322686
0.089401 -0.0592085 0.0715024
0.0845612 -0.0629419 0.0660949
0.0863134 -0.0612757 0.0683577
-0.050473 -0.0719337 -0.329115
0.0845425 -0.0644818 0.0642824
0.088918 -0.0684778 0.0607492
-0.049611 -0.081562 -0.335084
0.0872763 -0.0845445 0.0439017
-0.0420115 -0.0987208 -0.3468
-0.0449419 -0.100592 -0.345828
0.0914377 -0.0929634 0.0379798
0.0948999 -0.0896301 0.0439276
0.0927647 -0.0980407 0.0338425
0.0925827 -0.108444 0.0229404
0.0996715 -0.108534 0.025225
-0.0333822 -0.134013 -0.361091
0.0990455 -0.141538 -0.00183974
-0.0204373 -0.175752 -0.371527
0.102053 -0.172895 -0.0322188
0.100442 -0.192522 -0.061778
0.101125 -0.190304 -0.0584938
0.0963645 -0.213676 -0.0949786
0.00202341 -0.22371 -0.373994
0.0953816 -0.218525 -0.103302
0.0930074 -0.238283 -0.136748
0.0894682 -0.26997 -0.186549
0.0921457 -0.266079 -0.17903
0.0807759 -0.286022 -0.222881
0.0849404 -0.290151 -0.230311
0.086801 -0.289315 -0.22755
0.0887807 -0.286864 -0.219905
0.084372 -0.325434 -0.276505
0.0827816 -0.342567 -0.288413
0.0816735 -0.342321 -0.288264
0.0892142 -0.347658 -0.291407
0.0727834 -0.352172 -0.338928
0.082768 -0.363097 -0.328249
0.0879239 -0.367117 -0.323158
0.0485531 0.318935 0.416554
0.0639666 0.314815 0.450256
0.0102506 0.302687 0.292857
-0.00356955 0.290115 0.232085
-0.0177162 0.284734 0.184602
-0.00876488 0.288497 0.221123
-0.00466854 0.28974 0.23002
-0.0239723 0.281735 0.165924
-0.0237809 0.282472 0.170406
-0.0435595 0.274071 0.108529
-0.0361269 0.276627 0.126567
-0.0541605 0.268899 0.065912
-0.0505013 0.270529 0.0805078
-0.0712666 0.261419 0.012539
-0.0741432 0.258944 -0.00484618
-0.0826148 0.246622 -0.0415588
0.120398 0.257633 0.540152
-0.0939332 0.230819 -0.0781089
0.1275 0.254615 0.548225
0.131786 0.251695 0.558154
0.140479 0.244973 0.576783
-0.10144 0.206539 -0.127704
0.0996054 0.216124 0.42768
0.11852 0.215811 0.483058
0.121501 0.214419 0.492076
-0.102033 0.196087 -0.147358
0.0933999 0.209997 0.406403
0.100669 0.212826 0.420405
0.122298 0.2139 0.487982
-0.102736 0.193904 -0.15034
0.110026 0.214653 0.44553
0.119164 0.215274 0.473822
0.13599 0.206075 0.521181
0.156522 0.211882 0.583207
-0.100928 0.1897 -0.157466
0.0952156 0.199856 0.392913
0.0960946 0.201832 0.396164
0.138228 0.203705 0.518403
0.144004 0.201459 0.532613
0.159289 0.203167 0.573549
0.160681 0.205328 0.57864
0.092673 0.195598 0.386033
0.155682 0.200307 0.561137
0.0961921 0.191583 0.382967
0.0955753 0.193228 0.384682
-0.093525 0.141195 -0.198031
0.0989066 0.138019 0.334448
-0.0898985 0.10094 -0.231509
0.102965 0.114411 0.314859
0.107199 0.0924868 0.289978
0.107454 0.0891455 0.285929
0.102829 0.0640255 0.249687
0.0991673 0.0532216 0.230232
0.100464 0.0538484 0.231723
-0.0667971 0.0366696 -0.258782
0.0994864 0.0493887 0.221117
-0.0652562 0.0313303 -0.259971
-0.0633178 -0.0052693 -0.286357
-0.061406 -0.0134941 -0.29577
-0.0545316 -0.0411662 -0.316913
0.102829 -0.0325334 0.139443
0.102051 -0.0341948 0.137526
0.105367 -0.0414818 0.127936
0.0960411 -0.0527094 0.0876992
0.102395 -0.0491939 0.108029
0.0961976 -0.0586244 0.0718865
0.0947753 -0.0723267 0.0585807
-0.0445332 -0.0862163 -0.34116
-0.0412501 -0.0986097 -0.347144
0.102493 -0.0941226 0.0432602
0.0977909 -0.100587 0.0344871
0.101894 -0.123017 0.0116746
0.101812 -0.138446 0.000202557
0.105456 -0.154356 -0.0136181
0.107801 -0.173208 -0.0335489
0.104506 -0.185117 -0.0510279
0.103987 -0.183599 -0.0486042
0.104454 -0.189713 -0.0579021
0.103646 -0.202918 -0.0777529
0.10366 -0.212659 -0.0933981
0.0982496 -0.23839 -0.136712
0.0952251 -0.251314 -0.156486
0.021186 -0.258873 -0.373633
0.0238646 -0.26498 -0.37229
0.0308982 -0.27561 -0.370411
0.0949283 -0.273158 -0.190359
0.0934274 -0.280224 -0.20283
0.0350208 -0.288941 -0.366846
0.0873772 -0.291535 -0.232837
0.0499527 -0.312563 -0.361652
0.0889105 -0.33866 -0.286259
0.0526637 0.319061 0.411646
0.0555832 0.319356 0.422399
0.0627412 0.317589 0.441405
0.0652134 0.316458 0.44529
0.02691 0.308377 0.329002
0.0759752 0.30592 0.464854
0.0124636 0.300949 0.284477
0.00712113 0.295192 0.258905
-0.00479179 0.28947 0.213967
-0.00403541 0.289752 0.21795
-0.000553836 0.290914 0.228356
0.00220499 0.292062 0.237773
0.0849802 0.293557 0.474779
-0.0266712 0.279467 0.150008
-0.025281 0.280224 0.155822
-0.0324662 0.276996 0.12988
-0.0286833 0.278157 0.139555
-0.0621238 0.263451 0.0242024
-0.0798813 0.24743 -0.0411253
-0.0797689 0.246966 -0.0424082
-0.0818109 0.246998 -0.0410712
-0.0807421 0.248761 -0.0370678
-0.08174 0.244285 -0.0482531
0.123633 0.260468 0.530395
-0.0864609 0.234887 -0.0709857
-0.0891416 0.230508 -0.081199
0.145777 0.244109 0.578807
-0.0889301 0.220275 -0.104371
-0.0955918 0.202045 -0.141378
0.116952 0.214777 0.462095
0.104135 0.212386 0.424663
0.102085 0.207756 0.410841
0.165038 0.212742 0.587873
0.135139 0.204958 0.500582
0.137065 0.203364 0.502386
0.165672 0.204151 0.581292
0.100868 0.198864 0.395165
0.102716 0.172491 0.364356
-0.0924995 0.145493 -0.196715
-0.0857588 0.113881 -0.226059
-0.0881029 0.115092 -0.222206
-0.089094 0.115343 -0.220867
0.106541 0.127351 0.32487
-0.0877828 0.11245 -0.225142
-0.0849062 0.107738 -0.233101
0.108312 0.120139 0.318763
0.108887 0.119245 0.31796
-0.0852465 0.104384 -0.235307
-0.0879678 0.0989924 -0.235108
-0.0867654 0.0992722 -0.236427
-0.0809652 0.0902944 -0.246702
-0.085429 0.0904553 -0.241289
-0.0765513 0.0709515 -0.253206
-0.07227 0.055685 -0.256061
-0.0736093 0.0557448 -0.255071
-0.0700072 0.0472413 -0.257027
0.106657 0.0523417 0.228935
0.0980025 0.0441857 0.205313
0.0974561 0.0438234 0.20408
0.0967264 0.0413961 0.19819
0.100806 0.0438737 0.205326
0.0969054 0.0393709 0.194826
0.0988714 0.032696 0.187946
-0.0592845 0.00955473 -0.274693
-0.0582315 0.00516829 -0.280023
0.100294 0.0213237 0.181113
-0.0574123 0.00581425 -0.280348
0.103605 0.0172986 0.177684
0.106094 0.00261761 0.167091
0.103635 0.00162589 0.167129
-0.0592253 -0.0138626 -0.29803
-0.0558207 -0.0339958 -0.313526
0.10393 -0.0503953 0.102625
0.103933 -0.051396 0.094718
0.104044 -0.116605 0.0169423
-0.0267388 -0.143251 -0.365151
0.105571 -0.130202 0.0061467
0.107358 -0.158565 -0.0174992
0.108288 -0.189136 -0.0574833
0.108379 -0.186786 -0.0540798
0.00220805 -0.208177 -0.376808
0.105229 -0.213287 -0.0944001
0.106201 -0.214852 -0.0969226
0.101863 -0.233268 -0.128695
0.0193164 -0.251407 -0.37522
0.101537 -0.254834 -0.161251
0.101711 -0.256513 -0.163681
0.0979302 -0.266543 -0.178851
0.092067 -0.290485 -0.227792
0.0944377 -0.287282 -0.217112
0.0878873 -0.318445 -0.269999
0.0597475 -0.324686 -0.356454
0.090793 -0.331776 -0.281557
0.0887101 -0.363925 -0.329004
0.0471299 0.317755 0.387403
0.0482879 0.31808 0.392107
0.0609943 0.318988 0.430563
0.0620498 0.318771 0.4326
0.0496665 0.317987 0.386641
0.0306035 0.309602 0.33374
0.0326856 0.310407 0.33573
0.0374701 0.313127 0.347686
0.0742866 0.313884 0.444911
0.0187668 0.301705 0.287519
0.0224898 0.30397 0.298614
0.0133188 0.298119 0.272067
0.00551284 0.293173 0.241877
0.0064107 0.293597 0.245627
0.00815583 0.294329 0.250986
0.00819436 0.294487 0.252899
0.0107405 0.295836 0.261115
0.00864063 0.294065 0.243922
0.0132356 0.29617 0.261356
-0.0141906 0.284566 0.181826
-0.0242372 0.279598 0.150991
-0.0207912 0.281336 0.162523
-0.0160012 0.283108 0.17224
0.0912324 0.290929 0.475265
-0.0292028 0.276302 0.124396
-0.0216738 0.279705 0.151275
-0.0207469 0.279623 0.150202
-0.0133281 0.283529 0.174462
-0.0384797 0.27194 0.0979302
-0.0257813 0.277685 0.134278
-0.0472051 0.268893 0.0689703
-0.0412842 0.269728 0.0815357
-0.0354531 0.272731 0.103556
-0.0625806 0.262287 0.0115031
-0.0748341 0.253967 -0.0259087
0.117918 0.265525 0.51589
-0.0791817 0.237795 -0.0668731
0.139852 0.250121 0.562479
0.140835 0.249868 0.563045
-0.0861708 0.22891 -0.086314
-0.0822055 0.227203 -0.0917503
-0.0917707 0.199188 -0.149126
0.124837 0.211002 0.469572
0.110577 0.208475 0.424517
0.123128 0.209044 0.459382
0.129411 0.209559 0.482962
0.130981 0.208203 0.487633
-0.0933871 0.19142 -0.159596
0.132561 0.206122 0.483582
0.13271 0.206661 0.489935
0.132631 0.204864 0.479009
0.103579 0.200626 0.399847
0.140878 0.19842 0.492354
0.146826 0.194209 0.50367
0.103961 0.184472 0.377387
-0.0900801 0.155086 -0.193011
-0.0861102 0.126813 -0.212164
0.109526 0.139925 0.33584
-0.0829341 0.110322 -0.233031
0.112452 0.12177 0.319729
-0.0786843 0.0902574 -0.249305
-0.0778737 0.0768846 -0.251956
-0.07518 0.0717561 -0.25449
0.111977 0.0751387 0.266836
0.110929 0.0673254 0.254298
0.10394 0.0421498 0.201336
0.103956 0.0416663 0.200049
0.103873 0.0214508 0.179797
-0.0573007 -0.00209568 -0.288569
0.110763 -0.00463265 0.160216
0.113387 -0.0184147 0.150151
0.112465 -0.0235823 0.146606
-0.0483632 -0.0412477 -0.324168
0.114502 -0.0296038 0.142038
-0.0477278 -0.0470515 -0.325973
-0.0450261 -0.0580045 -0.331353
-0.0452134 -0.0570999 -0.330941
0.105824 -0.0507826 0.100129
0.104451 -0.0526844 0.082978
0.111936 -0.0503108 0.105345
-0.0434793 -0.0718019 -0.336609
0.110023 -0.107307 0.0256214
-0.0261849 -0.123475 -0.361555
-0.0156606 -0.15482 -0.37101
0.112059 -0.168977 -0.0292887
0.111809 -0.201682 -0.0756523
0.112341 -0.213675 -0.0950261
0.10775 -0.222005 -0.10922
0.106225 -0.225236 -0.115102
0.0191927 -0.239328 -0.378185
0.0216014 -0.252888 -0.375382
0.103486 -0.249091 -0.15265
0.0285348 -0.26076 -0.374722
0.104861 -0.252195 -0.157269
0.102768 -0.255443 -0.162097
0.036606 -0.27398 -0.372871
0.09925 -0.286332 -0.212429
0.0926194 -0.297824 -0.242558
0.0949143 -0.296268 -0.23888
0.0971935 -0.295039 -0.2354
0.0950251 -0.299074 -0.243522
0.0974499 -0.30318 -0.248765
0.0652164 -0.329615 -0.353635
0.0928175 -0.329144 -0.279501
0.0954599 -0.328063 -0.27871
0.0926193 -0.33129 -0.281296
0.100445 -0.331684 -0.282627
0.0856825 -0.357655 -0.335335
0.101814 -0.368435 -0.308825
0.0411768 0.314455 0.345029
0.0689861 0.316791 0.439066
0.0286564 0.306387 0.302443
0.0252223 0.304175 0.294522
0.00351714 0.291645 0.219676
0.01247 0.29536 0.250919
0.0139232 0.296196 0.260249
-0.00452001 0.287238 0.19164
-0.0389136 0.269522 0.0827944
-0.0511015 0.265855 0.0419952
0.108051 0.277936 0.487026
-0.0484608 0.26612 0.0402747
0.116122 0.268925 0.50548
0.13145 0.259342 0.531003
0.148337 0.244863 0.576251
0.153247 0.244138 0.575305
-0.0813166 0.22318 -0.101125
-0.0835085 0.218222 -0.11303
0.166677 0.224006 0.591721
0.170877 0.221738 0.589727
-0.0902118 0.197868 -0.151751
-0.0917286 0.191007 -0.160961
0.109507 0.20519 0.414592
0.120424 0.204564 0.436844
0.122122 0.204187 0.441399
0.129933 0.203055 0.464345
0.113271 0.20011 0.408621
0.11575 0.201021 0.414382
0.125087 0.20131 0.441885
0.124835 0.201814 0.442761
0.132361 0.201453 0.468131
0.127407 0.200006 0.446065
0.133449 0.19928 0.465518
0.133074 0.198948 0.463196
0.143502 0.194162 0.486279
0.148897 0.19165 0.500701
0.105619 0.186926 0.381258
0.151214 0.190053 0.504446
0.156598 0.189061 0.525002
0.176866 0.191612 0.574638
0.154831 0.187689 0.510347
0.16304 0.186631 0.538254
0.164152 0.186354 0.540955
0.172233 0.187605 0.564061
0.178131 0.186852 0.570192
0.17519 0.183676 0.561739
0.166673 0.18047 0.529043
0.108889 0.171976 0.365448
-0.0821834 0.142599 -0.204294
0.111031 0.155113 0.348999
-0.0821468 0.135031 -0.207898
-0.0781063 0.0969848 -0.247608
0.118324 0.110971 0.309877
0.118014 0.0985986 0.296886
0.118871 0.0998626 0.298297
0.117022 0.0931063 0.290402
0.115935 0.0854406 0.280667
-0.0552558 -0.00269362 -0.291837
-0.0430844 -0.0559412 -0.332655
-0.0422484 -0.0589914 -0.334048
0.106682 -0.0648323 0.0634094
0.109465 -0.0734099 0.0581192
-0.0335784 -0.0884522 -0.346875
0.10776 -0.0779126 0.0558549
-0.0332186 -0.094009 -0.348865
-0.0326122 -0.0993943 -0.350886
0.111966 -0.0858097 0.0496312
0.109681 -0.0920176 0.0446947
-0.0182031 -0.139661 -0.368507
0.114598 -0.138879 -0.00253778
-0.0148011 -0.153794 -0.371376
-0.00910316 -0.169058 -0.374434
0.118637 -0.164581 -0.027331
0.118594 -0.169667 -0.0327715
0.11505 -0.17103 -0.0329214
-0.00299938 -0.185317 -0.377128
0.116585 -0.177148 -0.0420562
-0.000183486 -0.193146 -0.377945
0.113251 -0.188499 -0.0576252
0.115641 -0.210349 -0.0898317
0.114322 -0.20908 -0.0877483
0.0199754 -0.236792 -0.37933
0.0217887 -0.242456 -0.378518
0.109246 -0.241848 -0.142102
0.107079 -0.252101 -0.157125
0.0430281 -0.279545 -0.374108
0.105085 -0.283332 -0.205166
0.103549 -0.285646 -0.209733
0.0632187 -0.318422 -0.360591
0.101363 -0.312822 -0.260905
0.0829108 -0.346534 -0.342883
0.102418 -0.349924 -0.295252
0.0584309 0.318339 0.390542
0.0730923 0.316769 0.426175
0.0299441 0.306878 0.301898
0.0801716 0.311907 0.441893
0.0226748 0.30091 0.275421
0.0147068 0.296131 0.250562
0.0193245 0.298368 0.26406
-0.00013122 0.28919 0.199231
0.00176157 0.290091 0.203926
-0.00850165 0.283835 0.170079
-0.00351389 0.286359 0.181703
-0.0101769 0.282718 0.161524
-0.0100608 0.2827 0.155002
-0.0360021 0.268275 0.0630615
-0.0348678 0.268514 0.0660984
-0.026523 0.272514 0.0985063
-0.0507555 0.265709 0.0207819
-0.0441088 0.267084 0.0452704
-0.073285 0.238667 -0.0674581
-0.078156 0.227952 -0.0913726
0.165384 0.233432 0.586408
-0.086832 0.195013 -0.157721
0.117439 0.198688 0.411562
0.119868 0.198986 0.416714
0.128749 0.198052 0.443834
0.136788 0.194594 0.462736
-0.0870662 0.173113 -0.183514
0.111706 0.191217 0.391121
0.139219 0.192846 0.46548
0.142785 0.191387 0.473233
0.143277 0.192357 0.478534
0.136532 0.191843 0.450614
0.139592 0.190404 0.457614
0.141504 0.191094 0.467517
0.143488 0.189052 0.467148
0.148006 0.187431 0.477854
0.1503 0.185279 0.477898
0.178929 0.175908 0.551784
0.17829 0.174824 0.54683
0.186104 0.174797 0.562242
-0.079257 0.139861 -0.208095
-0.0790729 0.133939 -0.211181
0.119159 0.132725 0.329975
-0.0786993 0.117166 -0.228455
-0.0792747 0.105626 -0.241369
0.119994 0.113558 0.312089
0.119493 0.114312 0.312803
-0.0712311 0.0876072 -0.257097
0.122378 0.100873 0.2993
-0.0726958 0.0844338 -0.256291
-0.0688898 0.0784473 -0.2601
0.121078 0.0907346 0.287223
-0.0668907 0.071816 -0.261953
0.119976 0.0842586 0.278621
-0.0660468 0.0653907 -0.262313
0.119654 0.0612083 0.243054
-0.0491903 -0.00322525 -0.302039
-0.0477927 -0.0138567 -0.314945
-0.0477549 -0.0115731 -0.31327
-0.0498552 -0.0123761 -0.310855
0.120441 -0.0228925 0.146613
-0.0432258 -0.0384998 -0.329233
0.12217 -0.036163 0.136979
-0.0399261 -0.0554787 -0.335451
-0.0403758 -0.0529311 -0.334622
0.123472 -0.0409919 0.13259
-0.0344539 -0.0781308 -0.343432
-0.0329318 -0.0812962 -0.345024
-0.0313992 -0.0821523 -0.346077
0.113755 -0.0812537 0.0525039
0.115446 -0.09844 0.0335683
0.116576 -0.13819 -0.00239645
-0.00964192 -0.149194 -0.374217
-0.00819467 -0.155303 -0.375086
0.118362 -0.148296 -0.0124163
0.119451 -0.162147 -0.0253606
0.00202485 -0.182979 -0.379552
0.116569 -0.221421 -0.107887
0.113534 -0.22847 -0.120208
0.116531 -0.231564 -0.125716
0.111762 -0.248674 -0.152283
0.111294 -0.245582 -0.147772
0.0391345 -0.264769 -0.378334
0.105022 -0.291737 -0.224207
0.106864 -0.296184 -0.233607
0.102479 -0.31538 -0.264122
0.104574 -0.329107 -0.280917
0.10258 -0.343081 -0.291605
0.0983672 -0.361451 -0.33112
0.106894 -0.365379 -0.307575
0.0450467 0.314728 0.338055
0.0584753 0.317946 0.380773
0.0644912 0.318203 0.401343
0.0651456 0.318198 0.404504
0.0786044 0.313944 0.43471
0.0849292 0.308798 0.44507
0.024165 0.301013 0.270531
0.00807814 0.292378 0.217502
0.0125885 0.294461 0.231335
-0.00303405 0.285276 0.162891
0.000454787 0.288165 0.187477
-0.0132375 0.281541 0.140331
-0.0188478 0.277428 0.1191
-0.00833143 0.283434 0.155776
-0.0222561 0.276438 0.119086
-0.037134 0.268224 0.0569348
-0.0351773 0.268538 0.0600438
-0.0316717 0.269428 0.070515
-0.0289588 0.27104 0.086278
0.108584 0.281199 0.481436
0.111682 0.279056 0.484324
-0.0607252 0.259653 -0.0155892
-0.0686632 0.239837 -0.0665035
0.161375 0.241542 0.571982
0.118663 0.184853 0.387283
0.13812 0.189553 0.440846
-0.0826501 0.168738 -0.190005
0.142995 0.186866 0.454487
0.146136 0.184458 0.453112
0.148557 0.183727 0.462414
0.188106 0.184752 0.574512
0.156713 0.180391 0.48149
0.157244 0.180273 0.483257
-0.0817523 0.158912 -0.196762
0.169119 0.175679 0.512293
0.117499 0.168304 0.364789
0.121994 0.171318 0.371271
0.115021 0.162553 0.357006
0.185162 0.168759 0.54269
0.116367 0.159017 0.353692
0.117801 0.160125 0.355359
-0.0778865 0.138624 -0.210211
-0.0780962 0.135132 -0.21168
-0.0761974 0.128034 -0.218588
-0.0758809 0.107385 -0.24339
0.122846 0.100716 0.299106
0.126234 0.0871533 0.281978
-0.0635564 0.0734354 -0.264872
0.125149 0.0742654 0.263498
0.122591 0.0672084 0.252326
-0.0553521 0.0517223 -0.271403
0.123927 0.0630578 0.245331
-0.0513263 0.0382826 -0.27604
0.121823 0.0505435 0.223211
-0.0505204 0.0304044 -0.278153
-0.0539974 0.0323888 -0.27236
0.117472 0.0453342 0.21042
0.109965 0.033991 0.185158
0.110398 0.0294111 0.180581
-0.0468467 0.0163 -0.286555
-0.0472055 0.0104338 -0.290131
0.117105 0.0136634 0.170101
0.120486 0.0111863 0.167979
0.119771 -0.00265825 0.159949
0.120813 -0.0017026 0.160444
-0.0424627 -0.0338675 -0.329131
-0.0412083 -0.037973 -0.331187
0.123407 -0.0241234 0.145652
-0.0341845 -0.050541 -0.339872
0.112243 -0.0530213 0.0725327
0.117831 -0.049786 0.0966214
0.126031 -0.0510301 0.113701
0.129609 -0.0509941 0.117193
0.117498 -0.0833248 0.0492337
-0.0236496 -0.0985034 -0.35598
0.116992 -0.0906739 0.0419053
0.115967 -0.0892076 0.0443296
-0.018137 -0.115364 -0.364409
-0.0118465 -0.132108 -0.372038
-0.00890419 -0.142403 -0.374533
-0.00249315 -0.168756 -0.37774
0.12248 -0.17149 -0.0368102
0.122812 -0.18358 -0.0540979
0.121913 -0.186982 -0.0583473
0.123713 -0.186268 -0.0579238
0.110088 -0.292246 -0.223955
0.112378 -0.294316 -0.228151
0.0617141 -0.304528 -0.368848
0.0643313 -0.307647 -0.367644
0.069791 -0.312591 -0.366391
0.07311 -0.317601 -0.364277
0.0796104 -0.332135 -0.353773
0.0829106 -0.334886 -0.35343
0.105379 -0.346476 -0.294538
0.10673 -0.348225 -0.296076
0.104952 -0.364424 -0.330715
0.106985 -0.365872 -0.329528
0.109361 -0.367155 -0.318104
0.112676 -0.36781 -0.318731
0.113588 -0.368851 -0.325178
0.0719813 0.317191 0.417107
0.0540216 0.316056 0.352242
0.0324095 0.305752 0.287718
0.0393102 0.309362 0.305569
0.0299967 0.30333 0.276046
0.0232668 0.299106 0.255129
0.0307586 0.302488 0.271355
0.089202 0.307178 0.441913
0.013495 0.292867 0.215451
0.00857994 0.290752 0.198459
0.0101108 0.291407 0.203427
0.0968372 0.298521 0.458336
-0.00380771 0.284751 0.155449
-0.002506 0.285249 0.16043
-0.051823 0.264786 0.00622633
-0.0367434 0.268873 0.0428613
0.115943 0.280433 0.479538
-0.0494514 0.265386 0.00665798
0.123281 0.272384 0.49647
0.126108 0.269986 0.502238
-0.0590522 0.253563 -0.0383478
-0.0636159 0.24804 -0.0504668
0.134043 0.263015 0.519183
-0.0702178 0.227893 -0.0921651
0.165447 0.240867 0.565342
0.135509 0.190569 0.427764
-0.0786443 0.171792 -0.19103
0.132149 0.188937 0.412562
0.133684 0.189401 0.417042
0.124149 0.184157 0.391861
0.129423 0.185366 0.400501
0.189714 0.186656 0.576248
0.190322 0.186912 0.576473
0.154478 0.180195 0.469615
0.164586 0.173803 0.480216
0.161498 0.176071 0.478962
0.121677 0.167283 0.365889
0.124583 0.169093 0.370312
-0.0730501 0.134356 -0.217854
0.122152 0.153373 0.350234
-0.0713589 0.119973 -0.232452
0.126274 0.132672 0.331084
0.126826 0.134225 0.332785
-0.0720833 0.115024 -0.238523
0.125961 0.120652 0.318386
0.126317 0.0982687 0.296194
0.127543 0.0911622 0.287434
0.12787 0.0747027 0.263776
0.125647 0.0699916 0.256501
0.126149 0.061984 0.243143
0.118651 0.044452 0.207136
0.123302 0.0473448 0.215025
0.119235 0.0407117 0.192235
0.118494 0.0397519 0.189106
0.120955 0.0153169 0.169136
-0.0428128 -0.0166466 -0.32195
-0.0355717 -0.0435107 -0.337591
-0.0342397 -0.0469634 -0.339256
0.132611 -0.0351466 0.138241
0.116212 -0.0501959 0.0767593
0.112849 -0.0515194 0.0757652
0.129106 -0.0519154 0.110582
-0.0221514 -0.0892044 -0.354561
-0.0149318 -0.11213 -0.365348
-0.0128754 -0.120654 -0.369073
0.123874 -0.12634 0.00631586
0.124954 -0.130163 0.0028385
-0.00400497 -0.148266 -0.377348
0.00311051 -0.164815 -0.380238
0.00224436 -0.169852 -0.379783
0.127615 -0.161183 -0.0274143
0.00900782 -0.187072 -0.380883
0.126619 -0.183605 -0.0551255
0.017428 -0.207641 -0.3819
0.0217574 -0.217544 -0.38231
0.12405 -0.21191 -0.0930623
0.0263824 -0.225086 -0.382299
0.122447 -0.224736 -0.11394
0.0332 -0.238646 -0.381384
0.120523 -0.233451 -0.129302
0.116042 -0.272367 -0.187461
0.116748 -0.275276 -0.19214
0.115465 -0.293809 -0.226392
0.11007 -0.301631 -0.243368
0.107658 -0.323864 -0.275501
0.0941283 -0.343099 -0.353942
0.117524 -0.368898 -0.320542
0.0793949 0.314901 0.414713
0.0395471 0.307498 0.296414
0.0399451 0.307706 0.297457
0.0513784 0.312865 0.328139
0.0324851 0.302807 0.272912
0.0401242 0.305239 0.286306
0.093471 0.304222 0.444261
0.0932995 0.30405 0.445277
0.0299281 0.298744 0.251218
0.0297841 0.299574 0.256392
0.0104519 0.290999 0.199032
0.0301842 0.297913 0.245368
-0.00898383 0.281127 0.130323
0.108275 0.29032 0.464475
0.109203 0.287655 0.469323
-0.0150885 0.274555 0.101513
0.112305 0.285849 0.470314
-0.0348694 0.268964 0.0451859
0.115294 0.282741 0.474629
-0.0461344 0.266574 0.0130284
0.122869 0.275815 0.48689
-0.0542852 0.258971 -0.0242516
-0.05175 0.26135 -0.0173945
0.127967 0.272697 0.493018
-0.0560962 0.254961 -0.0348511
-0.0558691 0.252465 -0.040633
-0.0573103 0.246146 -0.0537255
-0.063771 0.236689 -0.0732479
0.152474 0.253291 0.539501
0.158363 0.249689 0.547611
0.169614 0.238284 0.564663
-0.0727659 0.216414 -0.130161
-0.0739007 0.216804 -0.127901
-0.0715986 0.218858 -0.122471
-0.0738914 0.210541 -0.144522
0.184123 0.211624 0.582638
-0.0772449 0.181913 -0.183463
-0.0774053 0.174317 -0.190032
0.137798 0.188522 0.425339
0.138439 0.188585 0.428395
0.136719 0.186687 0.415646
0.139641 0.186839 0.423843
0.192867 0.194962 0.578728
0.142621 0.183908 0.421366
0.133296 0.176425 0.38964
0.198642 0.181454 0.57399
0.132706 0.172425 0.38267
0.161391 0.175404 0.472904
0.163168 0.173829 0.468908
0.168412 0.171668 0.486398
0.128296 0.163677 0.365976
0.171508 0.169189 0.486912
0.174112 0.167067 0.487441
0.175066 0.167671 0.495534
0.182514 0.164446 0.512989
0.186251 0.164251 0.527368
0.188721 0.16385 0.534311
0.194661 0.163712 0.550769
0.181529 0.162486 0.498927
0.189996 0.160601 0.527188
-0.0718263 0.141992 -0.215067
0.189549 0.160259 0.524324
0.195108 0.157223 0.532811
0.203637 0.158242 0.556257
0.204998 0.158984 0.559522
0.12682 0.143055 0.341659
-0.0699876 0.123144 -0.230715
0.133553 0.13601 0.336347
-0.0674978 0.110155 -0.248619
-0.0653001 0.0946495 -0.260309
-0.0626234 0.081789 -0.265235
0.131162 0.0956021 0.292572
-0.0608709 0.0714151 -0.26715
0.131682 0.0815339 0.273282
0.127417 0.0567733 0.233922
0.124245 0.0445749 0.204788
0.119457 0.0271386 0.171464
-0.0428025 0.00136797 -0.303296
0.129306 -0.00951605 0.154795
0.132208 -0.0143464 0.151568
0.133175 -0.0291038 0.142209
-0.0348679 -0.0421085 -0.337951
0.135749 -0.0391819 0.135401
0.120251 -0.0487946 0.0788352
-0.0286915 -0.0588627 -0.345044
0.121162 -0.0529495 0.0681974
0.132418 -0.0523147 0.10509
0.118775 -0.0607575 0.0625711
0.12469 -0.0920113 0.0347343
-0.0143758 -0.103713 -0.362335
0.125952 -0.103914 0.0233934
-0.00536798 -0.139289 -0.376501
0.128027 -0.179221 -0.049491
0.0209825 -0.200456 -0.381106
0.0239844 -0.212671 -0.381887
0.122071 -0.238078 -0.137134
0.12324 -0.237266 -0.135777
0.12338 -0.247551 -0.15107
0.1224 -0.262365 -0.171841
0.0548303 -0.271935 -0.378334
0.119449 -0.269709 -0.183014
0.0559497 -0.277548 -0.377224
0.124909 -0.268921 -0.181184
0.124255 -0.273226 -0.187945
0.126106 -0.276896 -0.193344
0.116841 -0.294641 -0.227904
0.0662184 -0.300339 -0.371796
0.0698474 -0.298957 -0.372764
0.120368 -0.294757 -0.227307
0.11541 -0.303241 -0.245466
0.0754367 -0.311586 -0.368779
0.0783633 -0.312881 -0.368631
0.0787196 -0.316829 -0.366965
0.0828615 -0.322198 -0.364674
0.0930021 -0.340871 -0.355227
0.115513 -0.341475 -0.295376
0.0565222 0.313532 0.336195
0.059901 0.314375 0.346529
0.0812081 0.313869 0.40387
0.0420647 0.305548 0.288387
0.0380426 0.303047 0.275123
0.043573 0.304321 0.282541
0.0164145 0.2911 0.19536
0.105151 0.297054 0.452069
-0.00220983 0.283212 0.144219
-0.0192427 0.271227 0.0809697
-0.0150564 0.272286 0.089364
-0.00960994 0.276108 0.108346
-0.0336198 0.269539 0.033507
-0.016911 0.270826 0.0804739
-0.0122537 0.272231 0.0899561
0.123744 0.278553 0.477091
-0.0552075 0.247389 -0.0504891
-0.0717509 0.21328 -0.139715
0.176506 0.23154 0.56698
-0.0745332 0.185265 -0.181601
0.146612 0.18144 0.42418
0.144756 0.178417 0.409747
0.134539 0.173042 0.385583
0.1374 0.173802 0.39005
0.136764 0.16992 0.38309
0.134872 0.168185 0.378432
0.136814 0.164914 0.375453
0.180219 0.162037 0.489081
-0.0697662 0.141348 -0.21774
-0.0676147 0.137253 -0.222764
0.201218 0.152672 0.537142
0.206121 0.156117 0.556141
-0.0661397 0.116303 -0.243475
0.135756 0.130321 0.330486
-0.0655577 0.106762 -0.253094
0.134879 0.118829 0.315652
0.136903 0.0993011 0.295437
0.135426 0.094461 0.290588
-0.0553482 0.067605 -0.271969
0.133993 0.078606 0.268716
-0.0515634 0.0542312 -0.27483
0.134881 0.0658142 0.247665
0.133952 0.0619873 0.241086
0.131225 0.0494302 0.217335
-0.0387991 0.0201842 -0.289694
-0.0395364 -0.000438858 -0.307987
0.133611 -0.0021293 0.159258
0.132343 -0.006461 0.156637
-0.0339968 -0.0230768 -0.334148
-0.0361057 -0.0355032 -0.335662
-0.0247754 -0.0609094 -0.347195
0.131736 -0.050032 0.0923322
0.127026 -0.0858072 0.0400555
0.125082 -0.0881752 0.0387336
0.125963 -0.105597 0.0219284
-0.00171355 -0.139643 -0.378578
0.00143533 -0.150092 -0.380093
0.00457033 -0.149187 -0.381883
0.133609 -0.163732 -0.0312174
0.0172811 -0.182429 -0.384209
0.0181934 -0.182888 -0.385036
0.0210946 -0.191795 -0.383898
0.0254777 -0.20309 -0.383714
0.131429 -0.196183 -0.0716546
0.129912 -0.215691 -0.100278
0.130936 -0.215415 -0.100005
0.130862 -0.231993 -0.126283
0.126551 -0.253038 -0.158317
0.126296 -0.251863 -0.156718
0.0559815 -0.263961 -0.382371
0.128627 -0.277297 -0.193312
0.118787 -0.310406 -0.257548
0.117856 -0.321282 -0.274933
0.116323 -0.334262 -0.289441
0.0687738 0.314251 0.361634
0.0763808 0.313905 0.387082
0.0512791 0.308687 0.304828
0.0667493 0.313914 0.350803
0.0707024 0.313927 0.361789
0.0516312 0.30837 0.303068
0.0488669 0.305851 0.290142
0.104405 0.30124 0.443667
0.106933 0.2976 0.45026
0.109093 0.296495 0.450188
0.108761 0.294931 0.45397
0.00680483 0.281744 0.143483
0.11382 0.291249 0.455737
0.000735784 0.279819 0.129439
-0.037663 0.268188 0.00849627
-0.0329439 0.269894 0.0249767
-0.0181546 0.269714 0.0733502
-0.0442816 0.264193 -0.00800975
-0.0189705 0.268861 0.06512
-0.0427801 0.263381 -0.0111477
0.133874 0.272938 0.484291
0.157027 0.255139 0.532678
-0.0611238 0.223751 -0.105417
0.188045 0.215453 0.571631
-0.0730606 0.187026 -0.18046
0.19426 0.206627 0.569229
-0.0733095 0.181241 -0.186492
0.144872 0.174258 0.400645
0.157458 0.175361 0.435736
0.15803 0.175948 0.443122
0.153492 0.175012 0.419854
0.143949 0.165298 0.38355
0.167749 0.16984 0.451249
0.144133 0.164513 0.382466
0.174965 0.165104 0.468083
0.176431 0.164351 0.479543
0.143147 0.161316 0.37629
0.146085 0.161067 0.378933
0.183233 0.158691 0.482682
0.19468 0.153643 0.517485
0.200268 0.152302 0.533244
0.143131 0.148362 0.35698
0.19462 0.151665 0.508676
0.196535 0.148357 0.502216
0.203917 0.145073 0.521363
0.214881 0.147734 0.553969
0.218091 0.148949 0.558707
0.141831 0.138426 0.342383
0.141302 0.134016 0.33647
0.21131 0.142671 0.536751
0.140231 0.128583 0.329408
0.140817 0.115094 0.310949
0.144919 0.104956 0.300209
0.141338 0.0879072 0.281263
0.142028 0.0863783 0.278999
-0.0520066 0.065795 -0.275156
-0.0484511 0.0611882 -0.278553
-0.0517857 0.0615822 -0.275016
-0.0496912 0.0583252 -0.276823
0.135965 0.0514825 0.219806
0.126711 0.0275429 0.166458
0.130072 0.0172539 0.166542
-0.0362612 -0.00201739 -0.312632
0.136165 0.00572041 0.16307
-0.0344008 -0.0169937 -0.330849
0.140884 -0.0237274 0.145236
0.14256 -0.0252795 0.144193
0.130472 -0.047617 0.083163
0.145117 -0.0462673 0.128124
0.135213 -0.0494503 0.0892766
0.144368 -0.0518649 0.118229
0.145747 -0.0494816 0.123342
0.144647 -0.0533838 0.11195
0.131986 -0.0810818 0.0422253
-0.00883786 -0.109705 -0.36612
0.13217 -0.117475 0.0115423
0.137679 -0.123154 0.00758535
0.00310678 -0.144544 -0.381309
0.00751222 -0.151312 -0.383477
0.139163 -0.17037 -0.0390258
0.139644 -0.173496 -0.0426035
0.0193246 -0.18476 -0.385474
0.140627 -0.174783 -0.0435719
0.139449 -0.182159 -0.0544144
0.144498 -0.176677 -0.0427979
0.140105 -0.194534 -0.0698435
0.137396 -0.198267 -0.0752986
0.137139 -0.197546 -0.0744426
0.143327 -0.212823 -0.0941842
0.139386 -0.220249 -0.106548
0.143636 -0.219545 -0.103937
0.14219 -0.229961 -0.118933
0.133951 -0.247187 -0.14817
0.139181 -0.257416 -0.161045
0.131661 -0.268635 -0.17931
0.129978 -0.2733 -0.186737
0.13647 -0.277803 -0.191639
0.126409 -0.288755 -0.213372
0.130053 -0.29981 -0.233347
0.121795 -0.308878 -0.254002
0.130244 -0.301411 -0.236378
0.0841593 -0.30882 -0.37057
0.129489 -0.304215 -0.242126
0.129595 -0.303445 -0.240604
0.129486 -0.309106 -0.251099
0.124876 -0.314023 -0.261573
0.0896332 -0.325466 -0.363848
0.0938269 -0.328952 -0.362335
0.118911 -0.33197 -0.287777
0.0958397 -0.335266 -0.359123
0.106085 -0.352325 -0.3488
0.117466 -0.363154 -0.338843
0.122946 -0.365203 -0.338346
0.0714301 0.314024 0.351667
0.0852798 0.313262 0.386436
0.0640701 0.313214 0.337437
0.0436579 0.302226 0.270948
0.0509527 0.306502 0.293069
0.0387283 0.29875 0.246223
0.0380108 0.299282 0.253701
0.00727141 0.28092 0.139671
0.119151 0.288209 0.452398
0.118183 0.285938 0.462381
0.000159503 0.276459 0.110865
-0.035302 0.267345 0.00230214
0.13037 0.275686 0.476633
-0.0427635 0.25881 -0.0228337
-0.0445814 0.256154 -0.0286035
0.140384 0.270064 0.490363
0.1402 0.269115 0.496099
-0.04374 0.246291 -0.0444453
0.161436 0.255587 0.530479
-0.0440592 0.237337 -0.0611758
0.167495 0.246936 0.54665
-0.0537557 0.227625 -0.0920223
-0.0464722 0.234375 -0.06981
-0.0448935 0.23513 -0.0670809
-0.0545538 0.226368 -0.0974477
-0.0572032 0.223655 -0.110383
-0.0602602 0.219789 -0.128958
0.177099 0.237901 0.553153
0.183958 0.225157 0.5617
-0.0631738 0.161317 -0.211528
-0.0641 0.157401 -0.213386
0.209063 0.177686 0.570657
0.148797 0.168041 0.394276
0.177571 0.162732 0.46526
-0.0646554 0.143424 -0.222055
0.149841 0.158513 0.378707
0.179414 0.161304 0.468576
0.180893 0.160252 0.473561
0.150011 0.157535 0.377243
0.184036 0.157346 0.472888
0.188325 0.153943 0.481584
0.193686 0.149853 0.492158
0.196267 0.147982 0.497189
0.1453 0.134474 0.338579
0.144292 0.133264 0.336563
0.211231 0.138904 0.523673
0.212708 0.138881 0.528577
0.14252 0.127887 0.329103
0.144767 0.121158 0.320347
0.145125 0.121405 0.320826
0.148204 0.11282 0.309441
0.147229 0.109715 0.305486
0.146038 0.0966282 0.291663
0.144138 0.0896215 0.283267
0.144377 0.078877 0.26763
0.140969 0.0605091 0.23572
-0.0395748 0.0417591 -0.285007
0.138118 0.0509658 0.21722
0.134149 0.0450382 0.192095
-0.0377185 0.0231832 -0.289183
-0.0347605 0.0240752 -0.291248
-0.0347401 0.0184703 -0.293778
-0.0324148 0.00574511 -0.305655
-0.0311959 0.000414829 -0.313149
-0.0290031 -0.000249935 -0.315563
0.142346 -0.0137291 0.151203
0.146015 -0.0188482 0.147581
0.149955 -0.0402986 0.133459
0.147797 -0.0375945 0.135925
0.149644 -0.043688 0.130353
0.137652 -0.0498005 0.0899677
0.145309 -0.0539215 0.106114
0.130026 -0.0661812 0.0562977
0.13401 -0.0716509 0.0510495
0.133903 -0.0791072 0.0433569
0.134961 -0.0765257 0.0457205
0.134455 -0.0861115 0.0354394
-0.00582907 -0.101687 -0.364737
0.13511 -0.10454 0.0214205
8.85557e-05 -0.118781 -0.376211
-0.00317377 -0.115584 -0.37218
0.142834 -0.125661 0.00666435
0.143805 -0.133566 0.000573076
0.144029 -0.140451 -0.00508077
0.040682 -0.218306 -0.390452
0.0454073 -0.23743 -0.387176
0.139189 -0.267051 -0.175065
0.131021 -0.303405 -0.239863
0.130552 -0.325932 -0.277171
0.109612 -0.348229 -0.352584
0.0647695 0.312488 0.324669
0.0925775 0.31226 0.405606
0.0652117 0.312047 0.319391
0.0777692 0.314915 0.357422
0.0642188 0.311391 0.315446
0.0943577 0.312121 0.400548
0.0965642 0.311323 0.402526
0.101191 0.308924 0.418298
0.104913 0.305956 0.426571
0.0482427 0.302374 0.267061
0.109831 0.300246 0.437875
0.0229165 0.289689 0.184762
0.0151829 0.282188 0.148692
-0.0213692 0.270711 0.0341531
-0.00859337 0.27031 0.0650556
-0.00307055 0.272766 0.0917389
-0.0186659 0.269627 0.0479792
-0.0126026 0.269557 0.0609623
-0.0109408 0.269681 0.0659886
-0.0370744 0.262201 -0.0136692
0.145708 0.268799 0.491468
0.144649 0.268612 0.494073
0.166698 0.253717 0.531784
-0.0451498 0.233809 -0.0710688
-0.0494454 0.228704 -0.0882753
-0.0622982 0.213899 -0.143865
0.20018 0.20063 0.568347
0.207241 0.187868 0.57007
-0.0608958 0.15553 -0.2172
0.160424 0.166306 0.411469
0.162183 0.16582 0.414366
0.157847 0.159448 0.390475
0.221476 0.165032 0.568223
0.151918 0.151516 0.369223
0.154943 0.153145 0.375062
0.187499 0.154176 0.473797
0.186033 0.154448 0.462593
0.18776 0.153649 0.470471
0.193882 0.14856 0.477952
0.154372 0.144402 0.359885
0.195324 0.147186 0.47738
0.194929 0.147986 0.482587
0.223476 0.137669 0.547724
0.226446 0.134653 0.545259
-0.0533244 0.0996722 -0.269545
0.150634 0.0992005 0.294238
0.148765 0.0949984 0.289536
-0.0491979 0.0781566 -0.27933
0.149823 0.0866812 0.278332
0.1467 0.0748448 0.261073
-0.0328537 0.0301506 -0.291334
0.139121 0.0472786 0.201043
0.130753 0.0349668 0.161263
-0.0296403 -0.00301969 -0.319935
0.141793 0.0118895 0.164142
0.141821 0.0094469 0.1636
-0.029792 -0.0162136 -0.334736
-0.0288292 -0.0207039 -0.337871
-0.0257715 -0.0311405 -0.343137
-0.0185654 -0.0476899 -0.348817
0.133323 -0.0438234 0.0733664
0.151248 -0.0417937 0.131942
0.139725 -0.0493458 0.0884098
0.152587 -0.0495416 0.122444
0.151749 -0.0524134 0.116479
0.149477 -0.0542355 0.100643
0.151949 -0.0543352 0.109416
0.139089 -0.100986 0.0238814
0.00340224 -0.130668 -0.3811
0.0296712 -0.192017 -0.390751
0.0317364 -0.197951 -0.390394
0.151458 -0.190763 -0.0589828
0.151059 -0.19878 -0.0705279
0.149692 -0.208671 -0.086149
0.150865 -0.209316 -0.0867924
0.144919 -0.237548 -0.129704
0.142836 -0.263503 -0.168919
0.144648 -0.271411 -0.180027
0.0750879 -0.285932 -0.379485
0.0796994 -0.293848 -0.376572
0.139981 -0.294761 -0.219346
0.132641 -0.320973 -0.268952
0.101369 -0.334182 -0.36004
0.131254 -0.331453 -0.284689
0.131202 -0.340112 -0.295214
0.128681 -0.36783 -0.336716
0.0671669 0.31192 0.315674
0.0698771 0.313652 0.330891
0.0600736 0.308094 0.298153
0.0582132 0.306717 0.288922
0.0601513 0.307629 0.294559
0.103536 0.307476 0.418736
0.0363128 0.296584 0.21631
0.0422986 0.298898 0.237044
0.0296114 0.292861 0.196851
0.0114676 0.279116 0.132177
-0.0255307 0.270528 0.0207466
0.12497 0.285433 0.442325
-0.024334 0.270279 0.0178922
-0.00166172 0.27137 0.0737758
-0.0313655 0.264693 -0.00559005
-0.0318526 0.263633 -0.00849451
-0.0298292 0.265043 -0.0040189
0.129267 0.281568 0.443776
0.135244 0.275733 0.460433
0.136422 0.275335 0.460342
-0.0351273 0.254444 -0.0280075
0.146319 0.26908 0.488576
0.146998 0.268503 0.492108
-0.033047 0.251852 -0.0318183
0.153599 0.266554 0.498853
0.157882 0.262028 0.516212
-0.0360498 0.243011 -0.0480866
-0.0360121 0.243279 -0.0475711
-0.0344402 0.240338 -0.0546324
0.182872 0.23919 0.545215
0.187408 0.233186 0.55336
-0.0609196 0.206252 -0.159583
-0.0607403 0.207662 -0.157277
-0.0613113 0.202811 -0.164993
-0.0602432 0.193532 -0.180233
0.202028 0.211783 0.56358
0.206456 0.204597 0.564673
-0.0604256 0.172736 -0.204947
-0.0593933 0.164599 -0.212081
0.217064 0.180566 0.567385
0.159772 0.155367 0.385087
0.173542 0.158992 0.425685
0.173187 0.158975 0.424383
0.162367 0.153762 0.385537
0.188102 0.150437 0.450263
0.186603 0.151739 0.449406
0.191924 0.149399 0.468145
0.192326 0.149181 0.469602
0.197402 0.145301 0.477288
0.227365 0.149299 0.562988
0.228766 0.143192 0.55884
0.151793 0.134409 0.341642
0.205852 0.139365 0.4908
0.150832 0.12608 0.329352
-0.0527413 0.112047 -0.258618
0.222571 0.130545 0.52324
0.230138 0.13134 0.54263
0.153531 0.121525 0.323855
-0.0510145 0.0986591 -0.272737
-0.0455303 0.0709674 -0.283664
-0.0358979 0.0450958 -0.289471
-0.0339609 0.042736 -0.2912
0.12997 0.0428873 0.163661
0.132593 0.0442727 0.16273
0.131452 0.0429683 0.161186
-0.0251545 0.00738649 -0.307675
0.142424 0.0176284 0.164523
0.150573 4.01585e-05 0.158183
0.147663 0.00105717 0.159392
-0.0244911 -0.0291431 -0.343784
-0.0207013 -0.0395645 -0.347367
0.153836 -0.0302635 0.139772
-0.0166978 -0.0492581 -0.349979
-0.0131383 -0.0578025 -0.352738
0.147385 -0.0515234 0.0908415
-0.00400931 -0.0868262 -0.366046
0.14106 -0.0906948 0.0304666
0.146246 -0.100404 0.0247243
0.00371993 -0.122014 -0.380012
0.144981 -0.113283 0.0161464
0.149432 -0.122662 0.0102688
0.0135415 -0.146856 -0.388012
0.15635 -0.153839 -0.0128479
0.161094 -0.177716 -0.0362025
0.156264 -0.182667 -0.0448094
0.0360832 -0.200313 -0.391928
0.152306 -0.208552 -0.0852751
0.152116 -0.223241 -0.106528
0.15212 -0.236362 -0.125256
0.147612 -0.259233 -0.161342
0.0771546 -0.28625 -0.379798
0.145902 -0.284557 -0.199665
0.143831 -0.288995 -0.207492
0.088945 -0.304277 -0.372855
0.136354 -0.318152 -0.263217
0.137018 -0.320951 -0.267394
0.13466 -0.326481 -0.276618
0.135124 -0.32512 -0.274422
0.134605 -0.329698 -0.281383
0.138054 -0.356714 -0.31024
0.127638 -0.365116 -0.341932
0.137219 -0.362577 -0.314772
0.0758676 0.314957 0.338268
0.093725 0.312891 0.392171
0.0938985 0.313139 0.3893
0.0565602 0.305116 0.272743
0.039728 0.297326 0.21883
0.105239 0.306769 0.407756
0.0404936 0.296381 0.211127
0.0414565 0.297531 0.219022
0.112423 0.301225 0.421363
0.0316946 0.290175 0.184037
0.0185108 0.280936 0.142298
0.014354 0.278668 0.127843
0.0238877 0.283166 0.1502
0.0167771 0.279176 0.128864
0.132038 0.281172 0.441607
-0.00546849 0.270602 0.0534047
-0.00217501 0.270658 0.0596056
-0.00264669 0.27088 0.0633831
0.00299697 0.272113 0.0809565
0.00710503 0.27337 0.0916446
0.130816 0.281082 0.442805
-0.0244089 0.26351 -0.00586013
-0.0284725 0.253212 -0.0285255
-0.0273989 0.255822 -0.0233723
0.153496 0.267788 0.490635
0.154814 0.267314 0.492507
-0.0307704 0.250814 -0.0331923
0.168348 0.255899 0.525549
-0.0369701 0.233666 -0.0740404
-0.0453414 0.226097 -0.112714
-0.053002 0.220606 -0.132696
-0.0517603 0.222294 -0.1273
0.18777 0.237073 0.542248
-0.0556481 0.216631 -0.142144
0.193304 0.227782 0.554501
-0.0578152 0.207015 -0.160333
0.197088 0.223609 0.555313
0.209439 0.203598 0.562155
0.209186 0.201452 0.563927
-0.058275 0.175891 -0.203535
0.22053 0.179721 0.566154
0.223391 0.170544 0.567616
0.165972 0.150793 0.384537
0.176702 0.154075 0.417017
0.189107 0.149308 0.449276
0.18805 0.149173 0.442893
0.163682 0.143475 0.367289
0.167282 0.145219 0.374832
0.161597 0.139092 0.356809
0.201436 0.14027 0.459901
0.234872 0.140593 0.558754
0.213049 0.134189 0.496005
0.236984 0.138718 0.557741
0.159509 0.129992 0.339049
0.218622 0.130689 0.502625
0.237212 0.131755 0.549867
0.220267 0.129778 0.505297
0.158365 0.0821763 0.270459
-0.0386642 0.0599192 -0.290585
-0.038115 0.0534781 -0.289288
0.152826 0.0704144 0.251447
0.149989 0.0525368 0.21234
0.135877 0.0455381 0.166119
-0.0279647 0.0284424 -0.297158
