ply
format ascii 1.0
comment Created by Open3D
element vertex 1655
property double x
property double y
property double z
end_header
-0.244748 -0.0187153 -0.0737426
-0.2654 -0.117235 -0.249631
-0.136404 -0.195632 0.0051334
-0.159669 -0.305742 -0.194918
-0.201797 0.245491 0.36318
-0.215909 0.199304 0.259041
-0.222772 0.150573 0.177767
-0.177144 0.122995 0.27776
-0.259797 0.093033 0.00555578
-0.282429 -0.0354033 -0.204403
-0.132225 -0.191593 0.00627381
-0.13762 -0.28822 -0.123826
-0.206457 0.224752 0.315191
-0.283468 0.197869 0.0684162
-0.244405 0.137571 0.0985111
-0.239576 0.120719 0.0855505
-0.237922 0.115748 0.0820105
-0.276186 0.0956386 -0.0423128
-0.250677 0.0866762 0.0198878
-0.239599 0.0778126 0.0352352
-0.262206 0.0370437 -0.0821542
-0.25632 -0.12704 -0.258628
-0.120761 -0.213219 -0.00250502
-0.199107 -0.287391 -0.29833
-0.135434 -0.381254 -0.242157
-0.206021 0.210106 0.278285
-0.243647 0.171562 0.128972
-0.197545 0.126654 0.198926
-0.234633 0.112967 0.0826728
-0.234209 0.0699915 0.0272982
-0.28431 0.020066 -0.163904
-0.279489 -0.00439846 -0.185297
-0.23576 -0.176853 -0.283835
-0.118073 -0.22639 -0.0140032
-0.129458 -0.287374 -0.126333
-0.161209 -0.350031 -0.281967
-0.161871 0.248646 0.429807
-0.2092 0.203092 0.249745
-0.221173 0.176547 0.181951
-0.233158 0.13641 0.107118
-0.167666 0.121202 0.264468
-0.287277 0.0791589 -0.111365
-0.278078 -0.0105977 -0.19242
-0.174807 -0.101063 -0.0215994
-0.238583 -0.157579 -0.278774
-0.114995 -0.235587 -0.0331931
-0.172478 -0.323318 -0.293595
-0.156915 0.246802 0.433079
-0.197475 0.223132 0.298184
-0.245229 0.210181 0.148135
-0.236726 0.170721 0.131719
-0.155174 0.143223 0.318265
-0.157288 0.127225 0.293161
-0.259783 0.096871 -0.0278821
-0.207978 0.0522333 0.0607286
-0.243375 0.0260681 -0.0753527
-0.271222 -0.0157855 -0.20515
-0.174423 -0.0857158 -0.0270488
-0.11235 -0.204455 0.00117992
-0.122271 -0.281097 -0.120093
-0.173579 0.263101 0.394946
-0.255497 0.234153 0.134267
-0.158073 0.208368 0.381084
-0.226852 0.172472 0.136341
-0.152753 0.125909 0.290368
-0.251298 0.093492 -0.0195888
-0.193068 0.048389 0.0766321
-0.229826 0.00318278 -0.0696538
-0.245109 -0.118137 -0.267404
-0.112021 -0.19689 0.00461942
-0.118056 -0.264843 -0.0960307
-0.117483 -0.321814 -0.178045
-0.156325 0.263261 0.430986
-0.150469 0.213 0.388556
-0.225393 0.171238 0.136283
-0.210344 0.122619 0.116925
-0.252726 0.093024 -0.0368155
-0.253957 0.0670324 -0.0701436
-0.272293 0.0409476 -0.156603
-0.203119 -0.0318222 -0.0535098
-0.112781 -0.185811 0.00854877
-0.110859 -0.241896 -0.0566525
-0.150357 -0.342801 -0.291048
-0.139643 0.240409 0.438676
-0.265066 0.198388 0.0428797
-0.208299 0.182823 0.174822
-0.271215 0.13831 -0.0512732
-0.165429 0.119024 0.216955
-0.270988 0.0822221 -0.117615
-0.192326 0.0678899 0.0892851
-0.184416 0.0461161 0.0828924
-0.204769 -0.0207396 -0.0575097
-0.248067 -0.0837464 -0.256029
-0.172269 -0.234117 -0.244283
-0.112167 -0.292224 -0.142535
-0.168426 0.264656 0.380146
-0.139214 0.233368 0.426726
-0.223994 0.199246 0.14493
-0.195863 0.132841 0.144
-0.139928 0.121578 0.280765
-0.232727 0.0838879 -0.0213609
-0.238582 0.0531933 -0.0655534
-0.260796 0.0116755 -0.188348
-0.257638 -0.0206214 -0.220259
-0.244076 -0.0862918 -0.259605
-0.225645 -0.149241 -0.28184
-0.171656 -0.229883 -0.241244
-0.110515 -0.262065 -0.102263
-0.107086 -0.369852 -0.235075
-0.132853 0.237232 0.435184
-0.265439 0.160095 -0.0245302
-0.133174 0.125155 0.294336
-0.264663 0.0934781 -0.108766
-0.220588 0.0738679 -0.00393856
-0.219951 0.033959 -0.0598978
-0.257835 -0.0170816 -0.217901
-0.117358 -0.140458 0.0142671
-0.0933816 -0.208809 -0.00429623
-0.187278 -0.248889 -0.30793
-0.130881 -0.354085 -0.284929
-0.23437 0.239935 0.148131
-0.223137 0.209887 0.147615
-0.21334 0.187959 0.141101
-0.172668 0.120998 0.176846
-0.229215 0.0805027 -0.0311716
-0.257276 0.053325 -0.151646
-0.257805 0.0229747 -0.178406
-0.210974 -0.171146 -0.291354
-0.0903537 -0.213943 -0.0127006
-0.163771 -0.243061 -0.255482
-0.140102 -0.332643 -0.297338
-0.222205 0.2339 0.152548
-0.190927 0.21539 0.226876
-0.126572 0.182043 0.357098
-0.261734 0.144289 -0.0568493
-0.173768 0.110363 0.151163
-0.167369 0.0994618 0.142527
-0.256128 0.0502667 -0.155865
-0.205981 0.0230504 -0.0547946
-0.250965 -0.0211107 -0.225011
-0.135634 -0.0964644 -0.00422853
-0.182469 -0.214231 -0.283013
-0.16516 -0.244252 -0.265336
-0.156203 0.267141 0.372673
-0.176179 0.226725 0.261754
-0.128677 0.199827 0.373521
-0.259266 0.158344 -0.0387426
-0.260994 0.116664 -0.0916711
-0.126243 0.113727 0.270045
-0.254927 0.0566353 -0.153261
-0.154615 0.0323728 0.0893365
-0.187147 -0.0138067 -0.0487347
-0.13455 -0.087328 -0.00559694
-0.104858 -0.129166 0.0186665
-0.0998648 -0.249634 -0.0986583
-0.138391 0.27644 0.412002
-0.169623 0.234964 0.282147
-0.121932 0.203764 0.380393
-0.140612 0.11135 0.222391
-0.248123 0.0490772 -0.160189
-0.191635 0.00805015 -0.0498806
-0.224246 -0.0975726 -0.271163
-0.0788723 -0.192767 0.00522818
-0.0907536 -0.240741 -0.0841672
-0.0938809 -0.2883 -0.154347
-0.0927825 -0.340396 -0.213754
-0.233287 0.242616 0.113832
-0.176029 0.226421 0.248496
-0.250862 0.183439 -0.0102423
-0.132279 0.106979 0.22512
-0.15389 0.0957516 0.149396
-0.181649 0.0449762 0.0107362
-0.190474 0.0209321 -0.0466853
-0.231992 -0.0417381 -0.245621
-0.192255 -0.179586 -0.300375
-0.0887184 -0.266217 -0.127034
-0.147475 0.267245 0.358176
-0.157941 0.247686 0.312941
-0.173795 0.227897 0.245043
-0.249118 0.174093 -0.0323189
-0.105056 0.165591 0.353095
-0.141376 0.104099 0.181901
-0.118906 0.103462 0.246088
-0.112059 0.101069 0.251403
-0.180781 0.0478155 0.00566296
-0.159952 0.0203536 0.0313304
-0.233646 -0.0237558 -0.23051
-0.199329 -0.143835 -0.289619
-0.145384 -0.233033 -0.245215
-0.129055 -0.313058 -0.307624
-0.138459 0.275871 0.390131
-0.220731 0.247229 0.120675
-0.105042 0.232868 0.429836
-0.248562 0.160164 -0.0598109
-0.116274 0.0993812 0.232163
-0.174146 0.04482 0.00430711
-0.154847 -0.03236 -0.0289238
-0.103863 -0.108944 0.0171103
-0.0690595 -0.211305 -0.0244795
-0.0850855 -0.27252 -0.136357
-0.0830597 -0.320302 -0.196753
-0.117472 0.273348 0.438486
-0.095979 0.243953 0.457403
-0.100679 0.229876 0.426517
-0.101828 0.224256 0.417427
-0.186286 0.182827 0.135148
-0.0922029 0.133212 0.328657
-0.239596 0.100049 -0.11845
-0.131997 0.0936148 0.164139
-0.138392 0.0681763 0.124804
-0.136808 0.040939 0.102186
-0.124361 0.0261485 0.0927783
-0.154436 -0.0230338 -0.0311595
-0.118979 -0.0787547 -0.00742642
-0.161477 -0.189488 -0.261619
-0.0746038 -0.233569 -0.0759401
-0.0873405 -0.372468 -0.27877
-0.0958063 0.267128 0.467509
-0.0924745 0.229269 0.428601
-0.0923033 0.175638 0.368565
-0.12642 0.0961548 0.171324
-0.18309 0.0556046 -0.0148721
-0.123358 0.0173781 0.0832729
-0.195779 -0.121987 -0.283844
-0.0612216 -0.205533 -0.0182666
-0.143214 -0.270341 -0.318257
-0.0878683 0.264758 0.476945
-0.0821107 0.2414 0.464031
-0.168242 0.227007 0.206431
-0.171797 0.172594 0.130729
-0.0806419 0.144156 0.345609
-0.0879566 0.100132 0.273981
-0.224212 0.0629872 -0.142755
-0.148812 0.018614 0.0192815
-0.219038 -0.00930215 -0.213552
-0.130382 -0.0525202 -0.0257485
-0.154652 -0.186708 -0.254927
-0.0653372 -0.217393 -0.0447111
-0.0711038 -0.250621 -0.112406
-0.0703676 -0.335979 -0.216761
-0.114077 0.281309 0.41987
-0.082608 0.235736 0.447034
-0.16879 0.180656 0.145192
-0.113825 0.0983345 0.196244
-0.117771 0.0258175 0.0941012
-0.122183 0.00137266 0.0479795
-0.132416 -0.0369333 -0.0263315
-0.169645 -0.179987 -0.306963
-0.129693 -0.284767 -0.318775
-0.206504 0.254213 0.117723
-0.149142 0.24001 0.248029
-0.0778561 0.233453 0.443602
-0.0848576 0.19802 0.391438
-0.0746355 0.151692 0.355766
-0.109592 0.0978058 0.190188
-0.0898993 0.0935897 0.236681
-0.146289 0.0102441 -0.0230006
-0.116972 -0.0570352 -0.0187357
-0.0545264 -0.16146 0.0208147
-0.0554384 -0.21098 -0.0360252
-0.114782 -0.301212 -0.315953
-0.0634742 -0.344481 -0.228136
-0.0691545 0.266414 0.497052
-0.218227 0.225865 0.0407098
-0.0790657 0.210468 0.406756
-0.0690195 0.154985 0.361225
-0.0938678 0.0928756 0.216671
-0.144801 0.0235692 -0.00124361
-0.117977 0.000553215 0.0384245
-0.194593 -0.0700991 -0.261458
-0.0592649 -0.127763 0.0327149
-0.151394 -0.190302 -0.285738
-0.0523132 -0.215291 -0.0510183
-0.0849007 -0.352735 -0.29442
-0.0698546 0.268223 0.494794
-0.0639128 0.262769 0.493822
-0.220907 0.21461 0.00956335
-0.158814 0.19204 0.147152
-0.226724 0.137026 -0.0960482
-0.0839905 0.0913377 0.236355
-0.11102 0.0648632 0.129219
-0.135319 0.00519322 -0.0165332
-0.187049 -0.0844214 -0.272189
-0.0443495 -0.185394 0.00212849
-0.12667 -0.26826 -0.323191
-0.0558317 -0.341545 -0.229174
-0.121406 0.271221 0.340451
-0.212094 0.232923 0.0453757
-0.0683309 0.226204 0.431741
-0.222467 0.139216 -0.0954882
-0.211402 0.0983146 -0.123121
-0.0886104 0.0892943 0.204224
-0.196274 0.00352562 -0.199221
-0.115586 -0.0267447 -0.0129889
-0.142178 -0.184677 -0.277282
-0.127183 -0.207361 -0.26014
-0.0544928 -0.239138 -0.105792
-0.060572 -0.310274 -0.198396
-0.083898 0.286876 0.446915
-0.210549 0.232105 0.0297818
-0.159845 0.223431 0.163871
-0.0615058 0.187316 0.387325
-0.206796 0.0888709 -0.130469
-0.078698 0.0845894 0.217146
-0.104623 -0.00311632 0.0382547
-0.19111 -0.0425214 -0.243872
-0.140061 -0.196303 -0.293284
-0.132147 -0.237155 -0.32565
-0.0919377 0.291312 0.416526
-0.116621 0.270028 0.323413
-0.154181 0.236374 0.172284
-0.0594345 0.21242 0.412703
-0.0480066 0.117087 0.322693
-0.0730859 0.0806848 0.217595
-0.194515 0.019955 -0.185655
-0.11254 -0.020005 -0.0100643
-0.0402936 -0.139664 0.0312957
-0.135546 -0.1973 -0.295554
-0.130945 -0.228228 -0.326891
-0.107688 -0.280672 -0.324283
-0.0467022 -0.373691 -0.267448
-0.174605 0.264234 0.144963
-0.151039 0.238481 0.185321
-0.0515124 0.223241 0.432333
-0.044613 0.138777 0.351138
-0.0928275 0.0714333 0.135207
-0.185808 0.0133537 -0.197383
-0.101358 -0.0305269 -0.00981652
-0.0427856 -0.122512 0.0362626
-0.0320385 -0.195425 -0.0178434
-0.0423235 -0.254023 -0.136391
-0.0885262 -0.317249 -0.315617
-0.0978464 0.290852 0.384221
-0.191929 0.252885 0.0811972
-0.0392253 0.245804 0.488961
-0.0510229 0.214335 0.416865
-0.0403151 0.100605 0.302153
-0.180269 -0.0331459 -0.237099
-0.165139 -0.0962909 -0.284872
-0.0351347 -0.12787 0.035133
-0.124744 -0.2048 -0.301393
-0.109238 -0.266903 -0.327547
-0.0762803 0.295436 0.435697
-0.11469 0.264364 0.291668
-0.031984 0.247927 0.4966
-0.0437271 0.224892 0.439768
-0.197697 0.108431 -0.127219
-0.0629431 0.0706796 0.196849
-0.0912141 -0.0405982 -0.0102587
-0.148293 -0.147031 -0.311641
-0.113597 -0.211084 -0.288296
-0.0427052 -0.287393 -0.185016
-0.0320369 -0.355857 -0.253361
-0.0913568 0.291051 0.36825
-0.0240792 0.267944 0.526274
-0.0280438 0.24563 0.491034
-0.0425366 0.195219 0.39556
-0.0322112 0.137093 0.350653
-0.069156 0.0742913 0.175815
-0.0766718 0.0389364 0.108312
-0.0818361 -0.0377933 -0.00844934
-0.115846 -0.191647 -0.281411
-0.0394308 -0.27964 -0.177737
-0.0582485 -0.342132 -0.312283
-0.0699881 0.297071 0.437055
-0.157496 0.263963 0.15354
-0.145206 0.252411 0.165948
-0.201846 0.15728 -0.100868
-0.0302663 0.0893531 0.285752
-0.0647934 0.0712459 0.168315
-0.169134 -0.0124442 -0.219773
-0.061222 -0.0841477 -0.0137207
-0.0556112 -0.0996462 -0.0195541
-0.115699 -0.188507 -0.287286
-0.0344812 -0.234821 -0.111175
-0.0354958 -0.294958 -0.197254
-0.0316651 -0.370694 -0.277795
-0.166191 0.26319 0.113777
-0.0135859 0.260341 0.529594
-0.0313298 0.193754 0.394627
-0.0234948 0.106567 0.313508
-0.0313981 0.0718039 0.248622
-0.065889 0.00832857 0.0754647
-0.0691437 -0.0615318 -0.0147161
-0.144644 -0.123739 -0.30682
-0.0136806 -0.175226 -0.00335092
-0.0301809 -0.274105 -0.176464
-0.0271533 -0.36778 -0.272074
-0.147562 0.262841 0.154903
-0.020777 0.233854 0.460472
-0.188 0.119643 -0.131811
-0.067795 0.0580239 0.122259
-0.157052 -0.0368517 -0.245526
-0.0639269 -0.0807713 -0.0312054
-0.0344771 -0.0896261 0.0307882
-0.108447 -0.200171 -0.298315
-0.0205351 -0.221087 -0.0955627
-0.0270533 -0.31418 -0.220237
-0.0705892 0.299024 0.393798
-0.109143 0.261375 0.249895
-0.00628167 0.26073 0.528536
-0.0238638 0.210082 0.414054
-0.0148797 0.139049 0.35158
-0.0494281 0.0648914 0.166318
-0.0623252 -0.00670343 0.0435506
-0.0300116 -0.0929316 0.0334908
-0.104055 -0.196347 -0.290939
-0.0205574 -0.333474 -0.240297
-0.0352616 0.293034 0.485348
-0.178083 0.246859 0.0335582
-0.184677 0.220699 -0.0211118
-0.0127958 0.121289 0.332537
-0.0559513 0.0307589 0.100658
-0.150079 -0.0483877 -0.259008
-0.130615 -0.146323 -0.317813
-0.0125612 -0.219131 -0.0920657
-0.0176589 -0.334154 -0.242552
-0.0932919 0.272934 0.287773
-0.178108 0.241944 0.0185074
-0.182529 0.209944 -0.0447705
-0.0172979 0.196864 0.396388
-0.182541 0.141252 -0.12193
-0.169062 0.0675554 -0.171828
-0.038285 0.0624647 0.174941
-0.0517182 0.00969429 0.0730549
-0.0584187 -0.0351124 -0.00506926
-0.00372854 -0.137499 0.0199364
-0.00730932 -0.208549 -0.0711435
-0.0488378 -0.315995 -0.330104
-0.0351535 0.298988 0.464439
-0.00268609 0.2768 0.521647
-0.00907468 0.2392 0.46704
-0.172178 0.108531 -0.149524
-0.00859924 0.069423 0.245505
-0.13626 -0.0847769 -0.290465
-0.0053888 -0.114103 0.0327633
-0.0125336 -0.241272 -0.130964
-0.0639109 0.299452 0.381538
-0.0789395 0.28437 0.308521
-0.102775 0.263265 0.21321
-0.0100128 0.197628 0.396665
0.00115905 0.104128 0.308989
-0.0501006 0.058673 0.120865
-0.138722 -0.0499176 -0.263579
-0.00679346 -0.107916 0.0353826
-0.082871 -0.243846 -0.345506
-0.00926211 -0.331772 -0.245883
-0.00719457 0.285519 0.501761
0.018344 0.267513 0.54257
-0.177213 0.187766 -0.0826887
0.00210389 0.0912401 0.289206
-0.00542892 0.0669175 0.237006
-0.0232493 0.0555755 0.169586
-0.0394553 0.0129506 0.0708706
-0.0372765 -0.0835687 -0.025835
0.00669042 -0.143971 0.0117641
-0.00384062 -0.232274 -0.119441
-0.017266 -0.356533 -0.311902
-0.0827568 0.2771 0.271516
0.0177026 0.258188 0.52107
0.00035051 0.229252 0.441416
0.00451053 0.156535 0.363229
0.0100211 0.10616 0.310244
-0.0178019 0.057483 0.180724
-0.146301 0.0120995 -0.219445
-0.0153819 -0.0860685 0.00887817
0.0117031 -0.158803 -0.000398651
0.0156031 -0.177372 -0.019991
0.0103663 -0.207756 -0.0751079
-0.000435023 -0.288548 -0.203999
-0.0168155 0.300034 0.467311
-0.0842623 0.273378 0.252505
0.020337 0.257818 0.521354
-0.167513 0.218548 -0.0413883
0.00758282 0.157623 0.363565
-0.151302 0.0765497 -0.17528
-0.0331995 0.0473041 0.107162
-0.0407218 -0.0206987 0.0092046
-0.00488301 -0.0905755 0.0213046
-0.0921749 -0.197111 -0.345257
0.00273242 -0.319498 -0.241813
-0.0194714 0.304139 0.453435
-0.0970819 0.265258 0.1895
-0.158663 0.238428 -0.0102993
0.00736804 0.220032 0.424343
0.0170802 0.114861 0.32042
-0.139652 0.0441504 -0.197864
-0.0297107 -0.00377828 0.0422674
0.014477 -0.127923 0.0174705
0.00746068 -0.252733 -0.157743
-0.00786361 -0.352446 -0.316591
-0.0708067 0.280528 0.278932
-0.150894 0.2501 0.0128462
0.0445033 0.24838 0.55214
-0.151522 0.10267 -0.161382
-0.000890287 0.0566926 0.187518
-0.0304779 -0.0283308 0.00173153
-0.0929791 -0.171097 -0.341191
-0.0350955 -0.302754 -0.339691
-0.000241514 0.300706 0.48834
-0.0870811 0.267753 0.211073
0.0257832 0.2512 0.495838
-0.159595 0.199015 -0.0799105
0.0187468 0.159016 0.362467
0.0143066 0.0699916 0.244243
-0.0241997 0.0149058 0.0638445
-0.0964179 -0.143832 -0.332206
-0.0742641 -0.215886 -0.349001
-0.0154558 -0.327139 -0.332114
-0.0591356 0.288371 0.301897
-0.132909 0.2605 0.0561463
0.0472583 0.244463 0.530794
0.0203196 0.175995 0.375899
0.0076527 0.0602107 0.202101
-0.0215098 -0.0112644 0.0304284
-0.0143678 -0.067959 -0.0196846
-0.0747242 -0.202983 -0.350037
-0.0444805 -0.271505 -0.349942
-0.0339706 0.303674 0.375856
-0.0766271 0.270049 0.21675
0.041056 0.274933 0.541748
0.0634198 0.254287 0.574842
0.0745117 0.236536 0.579159
-0.139618 0.0941368 -0.174064
0.0203349 0.0671966 0.232295
-0.117651 -0.00523881 -0.248493
-0.0694467 -0.200791 -0.351894
0.00298042 -0.346847 -0.323934
-0.0376186 0.299007 0.339896
-0.0666933 0.273712 0.232502
0.0401367 0.24507 0.492621
0.0566384 0.238544 0.532745
0.0308105 0.162329 0.362936
-0.137822 0.107766 -0.171589
0.0133626 0.0535976 0.186482
-0.109028 -0.0350168 -0.267909
0.00256116 -0.0786017 -0.00625623
0.0377439 -0.14365 0.00527524
0.036589 -0.216466 -0.0948439
0.0230844 -0.254486 -0.165384
0.0241234 -0.314393 -0.244343
0.0187075 -0.362739 -0.309515
0.045005 0.27852 0.532364
0.0548608 0.266874 0.553978
0.0574904 0.237702 0.514283
0.027532 0.201967 0.395233
-0.139905 0.133554 -0.160546
-0.125425 0.0622133 -0.199589
0.0138914 0.0415989 0.157573
-0.0973862 -0.0831954 -0.304348
0.0395497 -0.214485 -0.0908374
0.0294745 -0.341866 -0.270103
-0.0486618 0.287152 0.276533
-0.126487 0.255568 0.0227294
0.0315257 0.227781 0.423016
-0.138677 0.130835 -0.162997
-0.0112434 0.0508237 0.0899472
-0.00874366 -0.0216235 0.0127491
-0.0784356 -0.144618 -0.341569
-0.0316703 -0.263259 -0.355553
0.0291024 -0.293543 -0.223971
-0.00537523 0.309841 0.41363
0.0423836 0.28608 0.517874
-0.0995113 0.264407 0.0930178
-0.137734 0.221645 -0.0602192
0.0826028 0.228841 0.556414
0.04249 0.169412 0.367384
0.0454856 0.0708823 0.252979
-9.85856e-06 0.0529935 0.11854
-0.00470473 -0.00507015 0.0384819
0.023907 -0.0303712 0.0685404
0.0269807 -0.0489176 0.0567793
0.0252717 -0.0643274 0.0327072
0.0216148 -0.0786024 0.00649604
0.0390804 -0.0999695 0.0249177
0.0524892 -0.189612 -0.0473295
-0.0375706 -0.248804 -0.35759
0.00896898 0.31563 0.436149
-0.0564236 0.276782 0.211357
-0.108232 0.260634 0.0603728
0.0871569 0.229572 0.562276
0.0514126 0.105898 0.307566
-0.00493947 0.0449197 0.0837226
-0.11138 0.028423 -0.229522
0.00264482 0.0242892 0.0747947
0.0399409 0.0263665 0.170724
0.0196392 0.0151473 0.106707
0.0109013 0.00927631 0.0754252
0.0224024 0.00442027 0.101158
0.0174047 -0.00345937 0.0781132
0.0369462 -0.00587126 0.126207
0.00572556 -0.0260941 0.0205595
0.0340072 -0.0294348 0.095473
0.0235482 -0.0356612 0.0604702
0.0212583 -0.0407163 0.0458027
0.044611 -0.0494661 0.090605
-0.0738147 -0.13813 -0.342362
0.0553171 -0.184034 -0.0388183
0.0379564 -0.296752 -0.232561
0.00984257 0.315916 0.437274
-0.030232 0.293136 0.293059
-0.066198 0.27253 0.175929
0.0474548 0.23297 0.444801
-0.138275 0.1885 -0.121009
0.0593785 0.102647 0.303366
0.0483774 0.057824 0.222497
0.0480384 -0.00425496 0.150551
-0.0688309 -0.144166 -0.345906
0.0568067 -0.195737 -0.0579612
0.0260818 0.309986 0.472174
-0.0585616 0.274186 0.188426
-0.127717 0.227241 -0.0602885
-0.118583 0.0914533 -0.196186
0.0567956 -0.0128622 0.154947
0.064546 -0.0189933 0.163413
0.0492145 -0.0607289 0.0752574
0.062375 -0.148642 -5.77944e-05
0.0521311 -0.228638 -0.119241
0.0377732 -0.358558 -0.320002
0.0112547 0.312195 0.410354
0.0594593 0.2826 0.512841
0.110297 0.234569 0.582261
-0.130577 0.191283 -0.125261
0.0604303 0.135963 0.336357
0.0540993 0.0560276 0.220925
-0.0818913 -0.0586857 -0.300147
0.0546882 -0.104916 0.026206
-0.0520121 -0.177247 -0.35688
0.0536011 -0.240016 -0.142322
0.0230606 -0.333524 -0.337726
-0.0195766 0.296547 0.295309
-0.105368 0.2598 0.0237962
0.105925 0.243313 0.582132
0.0589958 0.191249 0.386016
-0.11607 0.108317 -0.192206
0.0581508 0.0544423 0.218266
-0.0984972 0.0265186 -0.240008
0.0790117 -0.0192653 0.165313
-0.0703857 -0.10273 -0.329711
-0.0372143 -0.208247 -0.361768
0.00979652 -0.301191 -0.355932
0.0210034 0.314525 0.424865
-0.0467486 0.278824 0.199506
-0.0991836 0.260965 0.0282462
0.0995233 0.249689 0.570026
0.0818365 0.227195 0.48057
-0.124489 0.179249 -0.147349
0.0746084 0.11112 0.313298
0.0576871 0.0481142 0.195531
0.0707361 -0.123813 0.0166438
0.0663495 -0.229105 -0.120525
0.0422091 -0.343312 -0.33757
-0.0169535 0.295997 0.288276
-0.105842 0.246003 -0.0257213
0.0706202 0.223729 0.430738
0.115425 0.222356 0.553655
-0.107533 0.106796 -0.203858
0.065174 0.0403337 0.191363
0.0712956 -0.0400639 0.118387
0.0665351 -0.0786671 0.0511752
0.0737936 -0.219186 -0.102829
0.00646918 -0.283112 -0.362565
0.00994783 0.310844 0.368734
-0.0490066 0.276463 0.160359
0.102 0.255969 0.541155
-0.11808 0.206206 -0.112336
0.0779732 0.13124 0.33053
0.0812607 0.000478708 0.175417
-0.0470531 -0.142543 -0.353589
0.078461 -0.207635 -0.0831571
0.0131018 -0.287731 -0.362293
0.0422799 0.313405 0.44784
0.00252853 0.306175 0.328591
-0.0466096 0.277115 0.150873
0.101531 0.219789 0.494512
0.0738427 0.176882 0.364722
0.0787288 0.143693 0.340463
-0.0872274 0.0476325 -0.241751
-0.0746087 -0.0330056 -0.29629
0.0810151 -0.217055 -0.0996872
0.0705122 -0.284818 -0.222179
0.0352532 0.315158 0.423875
-0.0135543 0.291085 0.251924
0.0754293 0.281814 0.489329
-0.0990833 0.245431 -0.0300575
0.130838 0.23958 0.582644
0.115567 0.217885 0.518801
0.087078 0.131206 0.330021
-0.0816758 0.0360187 -0.248008
-0.0686151 -0.0466465 -0.307811
-0.0288427 -0.180257 -0.368703
0.0786266 -0.250226 -0.157784
0.0425527 -0.323082 -0.350513
0.0235066 0.311433 0.363622
-0.0283734 0.283885 0.191476
-0.0596544 0.270117 0.082157
0.120813 0.25026 0.563996
-0.107309 0.203275 -0.129073
0.144582 0.218428 0.579429
0.0865672 0.152985 0.346448
-0.0816093 0.0431994 -0.248287
0.0898641 -0.0146434 0.162405
0.0800628 -0.0598899 0.0698229
-0.0265883 -0.180742 -0.36952
0.000967817 -0.239512 -0.370726
0.0327477 -0.304411 -0.358768
0.076305 -0.364739 -0.317695
0.0133641 0.307561 0.328078
0.0804662 0.288001 0.480203
-0.0795616 0.259854 0.00443929
0.145586 0.219968 0.581987
0.0840191 0.175708 0.362546
0.0865809 0.0425289 0.198346
0.0877596 -0.0519308 0.0888261
-0.023438 -0.170434 -0.369943
0.087768 -0.243933 -0.145955
0.0469442 0.318695 0.414925
-0.0227796 0.284401 0.186463
-0.0465063 0.273999 0.107908
0.137133 0.24337 0.57909
0.0919682 0.210225 0.405703
0.0937124 0.169949 0.36003
-0.0833578 0.0666552 -0.246487
-0.0533597 -0.0637575 -0.322686
0.0872763 -0.0845445 0.0439017
-0.0333822 -0.134013 -0.361091
0.0953816 -0.218525 -0.103302
0.084372 -0.325434 -0.276505
0.0639666 0.314815 0.450256
-0.0435595 0.274071 0.108529
-0.0939332 0.230819 -0.0781089
-0.102033 0.196087 -0.147358
0.156522 0.211882 0.583207
0.092673 0.195598 0.386033
0.107199 0.0924868 0.289978
-0.0633178 -0.0052693 -0.286357
0.0961976 -0.0586244 0.0718865
0.105456 -0.154356 -0.0136181
0.0952251 -0.251314 -0.156486
0.0499527 -0.312563 -0.361652
0.0124636 0.300949 0.284477
-0.025281 0.280224 0.155822
-0.08174 0.244285 -0.0482531
0.104135 0.212386 0.424663
-0.0924995 0.145493 -0.196715
0.108887 0.119245 0.31796
-0.0736093 0.0557448 -0.255071
0.0988714 0.032696 0.187946
-0.0592253 -0.0138626 -0.29803
0.108288 -0.189136 -0.0574833
0.101711 -0.256513 -0.163681
0.0471299 0.317755 0.387403
0.0742866 0.313884 0.444911
0.0107405 0.295836 0.261115
-0.0292028 0.276302 0.124396
-0.0354531 0.272731 0.103556
-0.0822055 0.227203 -0.0917503
0.132561 0.206122 0.483582
-0.0861102 0.126813 -0.212164
0.110929 0.0673254 0.254298
-0.0483632 -0.0412477 -0.324168
-0.0434793 -0.0718019 -0.336609
0.106225 -0.225236 -0.115102
0.09925 -0.286332 -0.212429
0.0954599 -0.328063 -0.27871
0.0252223 0.304175 0.294522
-0.0484608 0.26612 0.0402747
0.170877 0.221738 0.589727
0.11575 0.201021 0.414382
0.148897 0.19165 0.500701
0.172233 0.187605 0.564061
-0.0781063 0.0969848 -0.247608
-0.0422484 -0.0589914 -0.334048
0.109681 -0.0920176 0.0446947
-0.00299938 -0.185317 -0.377128
0.109246 -0.241848 -0.142102
0.102418 -0.349924 -0.295252
-0.00013122 0.28919 0.199231
-0.026523 0.272514 0.0985063
0.119868 0.198986 0.416714
0.136532 0.191843 0.450614
0.186104 0.174797 0.562242
-0.0712311 0.0876072 -0.257097
0.119654 0.0612083 0.243054
-0.0399261 -0.0554787 -0.335451
0.116576 -0.13819 -0.00239645
0.116531 -0.231564 -0.125716
0.10258 -0.343081 -0.291605
0.0849292 0.308798 0.44507
-0.00833143 0.283434 0.155776
-0.0607252 0.259653 -0.0155892
0.148557 0.183727 0.462414
0.115021 0.162553 0.357006
0.122846 0.100716 0.299106
0.121823 0.0505435 0.223211
0.117105 0.0136634 0.170101
0.112243 -0.0530213 0.0725327
-0.018137 -0.115364 -0.364409
0.110088 -0.292246 -0.223955
0.105379 -0.346476 -0.294538
0.0540216 0.316056 0.352242
0.00857994 0.290752 0.198459
-0.0494514 0.265386 0.00665798
0.135509 0.190569 0.427764
0.154478 0.180195 0.469615
0.126274 0.132672 0.331084
0.126149 0.061984 0.243143
-0.0342397 -0.0469634 -0.339256
0.123874 -0.12634 0.00631586
0.017428 -0.207641 -0.3819
0.116748 -0.275276 -0.19214
0.0399451 0.307706 0.297457
0.0104519 0.290999 0.199032
0.115294 0.282741 0.474629
-0.0573103 0.246146 -0.0537255
-0.0738914 0.210541 -0.144522
0.192867 0.194962 0.578728
0.128296 0.163677 0.365976
0.181529 0.162486 0.498927
-0.0699876 0.123144 -0.230715
0.127417 0.0567733 0.233922
0.135749 -0.0391819 0.135401
0.125952 -0.103914 0.0233934
0.1224 -0.262365 -0.171841
0.0662184 -0.300339 -0.371796
0.0930021 -0.340871 -0.355227
0.0164145 0.2911 0.19536
-0.0122537 0.272231 0.0899561
0.134539 0.173042 0.385583
0.201218 0.152672 0.537142
-0.0553482 0.067605 -0.271969
0.133611 -0.0021293 0.159258
0.125963 -0.105597 0.0219284
0.0254777 -0.20309 -0.383714
0.128627 -0.277297 -0.193312
0.0707024 0.313927 0.361789
0.11382 0.291249 0.455737
0.133874 0.272938 0.484291
0.157458 0.175361 0.435736
0.143147 0.161316 0.37629
0.203917 0.145073 0.521363
0.144919 0.104956 0.300209
0.126711 0.0275429 0.166458
0.145117 -0.0462673 0.128124
0.137679 -0.123154 0.00758535
0.144498 -0.176677 -0.0427979
0.133951 -0.247187 -0.14817
0.130244 -0.301411 -0.236378
0.118911 -0.33197 -0.287777
0.0436579 0.302226 0.270948
-0.035302 0.267345 0.00230214
-0.0440592 0.237337 -0.0611758
0.177099 0.237901 0.553153
0.149841 0.158513 0.378707
0.1453 0.134474 0.338579
0.147229 0.109715 0.305486
-0.0377185 0.0231832 -0.289183
0.149955 -0.0402986 0.133459
0.134961 -0.0765257 0.0457205
0.144029 -0.140451 -0.00508077
0.0925775 0.31226 0.405606
0.0482427 0.302374 0.267061
-0.0126026 0.269557 0.0609623
-0.0622982 0.213899 -0.143865
0.151918 0.151516 0.369223
0.194929 0.147986 0.482587
0.1467 0.0748448 0.261073
-0.0288292 -0.0207039 -0.337871
0.149477 -0.0542355 0.100643
0.149692 -0.208671 -0.086149
0.132641 -0.320973 -0.268952
0.0582132 0.306717 0.288922
0.12497 0.285433 0.442325
0.136422 0.275335 0.460342
-0.0360121 0.243279 -0.0475711
0.202028 0.211783 0.56358
0.162367 0.153762 0.385537
0.151793 0.134409 0.341642
-0.0455303 0.0709674 -0.283664
0.150573 4.01585e-05 0.158183
-0.00400931 -0.0868262 -0.366046
0.161094 -0.177716 -0.0362025
0.145902 -0.284557 -0.199665
0.138054 -0.356714 -0.31024
0.105239 0.306769 0.407756
0.0167771 0.279176 0.128864
-0.0244089 0.26351 -0.00586013
-0.0453414 0.226097 -0.112714
0.209439 0.203598 0.562155
0.18805 0.149173 0.442893
0.159509 0.129992 0.339049
0.149989 0.0525368 0.21234
-0.0228599 0.0072247 -0.311396
0.161151 -0.0506557 0.119522
0.0109505 -0.118145 -0.386226
0.162075 -0.161867 -0.0186032
0.152758 -0.250693 -0.147891
0.147739 -0.281255 -0.194009
0.107251 -0.329486 -0.367501
0.139952 -0.369662 -0.337773
0.0263792 0.283732 0.145575
0.151701 0.27085 0.471069
-0.0534098 0.197901 -0.178738
0.175108 0.145909 0.38636
0.217474 0.130615 0.48816
0.136534 0.0444987 0.157091
0.138186 -0.0450554 0.0671305
0.160444 -0.135395 0.00167203
0.07654 -0.267954 -0.396083
0.0863458 0.314618 0.337259
0.0278432 0.283878 0.142859
-0.0207391 0.260161 -0.0129722
-0.0368719 0.228546 -0.107704
0.183818 0.147447 0.408728
0.244765 0.128566 0.549717
-0.0263512 0.039487 -0.304244
-0.0131329 -0.0292755 -0.352758
0.165808 -0.055478 0.109319
0.0359641 -0.170667 -0.40091
0.157629 -0.275245 -0.182677
0.127884 -0.347442 -0.364453
0.0620907 0.302612 0.252411
0.0301623 0.283052 0.135714
-0.0128088 0.262561 -0.00998112
-0.0470038 0.202768 -0.174917
0.194599 0.141651 0.421686
0.212842 0.133626 0.453441
0.166523 0.0892102 0.279369
0.144711 0.0463447 0.149064
0.171941 -0.0456205 0.122129
0.17095 -0.137036 0.00055671
0.170375 -0.210008 -0.0826769
0.117215 -0.326015 -0.378664
0.0919757 0.313351 0.334747
0.0424402 0.287107 0.162002
-0.0118915 0.256994 -0.0252369
0.220505 0.199561 0.55073
0.214066 0.133068 0.454856
0.232309 0.121832 0.483237
0.15193 0.0478054 0.165999
0.172974 -0.0504404 0.117088
0.0162939 -0.103775 -0.386886
0.177299 -0.185886 -0.0506392
0.163185 -0.301771 -0.227915
0.106242 0.310756 0.354239
0.00889494 0.270685 0.0479682
-0.0424493 0.190841 -0.193427
0.183325 0.12115 0.337797
-0.0262523 0.0609915 -0.310488
0.167808 0.00988728 0.157712
0.178756 -0.163064 -0.022077
0.179569 -0.219916 -0.0941796
0.176246 -0.265801 -0.162258
0.157434 -0.341416 -0.298033
0.064825 0.294245 0.211891
0.0257974 0.273591 0.0843335
-0.00776647 0.253706 -0.0299625
-0.0211824 0.233231 -0.0907736
-0.0401745 0.185512 -0.201021
-0.0309563 0.139215 -0.248221
-0.0320681 0.0978989 -0.293397
0.168228 0.058111 0.209413
0.179817 -0.116946 0.0176545
0.0683703 -0.218579 -0.405204
0.11497 -0.307305 -0.386538
0.0911134 0.309985 0.295523
0.0702384 0.293748 0.211299
0.00893748 0.265805 0.0166586
0.171354 0.264497 0.464811
-0.0352742 0.178717 -0.209862
0.206519 0.129096 0.384536
0.244294 0.114949 0.476685
0.167462 0.0523722 0.189041
0.011302 -0.0535501 -0.372336
0.184171 -0.0577823 0.0904282
0.187071 -0.151839 -0.0130476
0.077049 -0.229255 -0.404151
0.184232 -0.255152 -0.143192
0.179064 -0.283911 -0.189238
0.153709 -0.355743 -0.354799
0.110881 0.310729 0.333976
0.056682 0.285581 0.156465
0.0125392 0.255819 -0.000966863
0.198154 0.240883 0.496258
0.235168 0.1945 0.535843
0.21761 0.126109 0.40529
0.233353 0.120012 0.44156
0.174902 0.0607365 0.208365
0.00787431 -0.0348758 -0.365826
0.0195928 -0.0739138 -0.379929
0.0744992 -0.215003 -0.405965
0.187343 -0.277474 -0.174867
0.104499 0.308338 0.298967
0.144475 0.290785 0.397633
0.164123 0.273734 0.426006
-0.0205591 0.230161 -0.13575
-0.023444 0.176994 -0.20831
0.230647 0.120154 0.420997
0.245402 0.113215 0.451023
0.187184 0.0822089 0.256559
0.190702 -0.034952 0.120987
0.189096 -0.115636 0.0190795
0.19882 -0.199159 -0.0626613
0.113695 -0.281816 -0.392105
0.156693 -0.346893 -0.359743
0.0936794 0.298218 0.245015
0.152669 0.284766 0.390752
0.0254935 0.252847 0.00339173
-0.0234349 0.204058 -0.185281
-0.0221994 0.169676 -0.226815
0.268587 0.15004 0.554863
0.205048 0.113306 0.330001
-0.0126585 0.0775936 -0.314703
0.173506 0.0344177 0.151389
0.190879 -0.0569172 0.0802588
0.0611989 -0.168465 -0.406325
0.0803926 -0.212554 -0.406001
0.202361 -0.223296 -0.0919057
0.18444 -0.330995 -0.273964
0.0658827 0.283456 0.152164
0.171687 0.268833 0.417926
0.0104673 0.242419 -0.0628662
0.0096619 0.23903 -0.0596326
-0.0210512 0.18097 -0.226655
0.204489 0.107922 0.317129
0.19686 0.0812944 0.255315
0.180318 0.0311776 0.151808
0.194941 -0.0220194 0.129042
0.189514 -0.0859992 0.0371967
0.206083 -0.212665 -0.0769887
0.196361 -0.297487 -0.207635
0.179829 -0.35044 -0.320327
0.102308 0.298994 0.25042
0.0501114 0.267389 0.0727332
0.189091 0.254667 0.439177
0.22975 0.209577 0.48898
0.235542 0.20382 0.499431
0.215332 0.11796 0.341194
0.00695638 0.0467678 -0.327114
0.200146 -0.0303955 0.121278
0.195317 -0.0842273 0.0380365
0.205218 -0.126021 0.0128129
0.108379 -0.244963 -0.397972
0.141143 -0.300291 -0.381056
0.200078 -0.311064 -0.230701
0.136998 0.301488 0.342671
0.0210385 0.251493 -0.0436854
0.242595 0.197566 0.501291
-0.0109828 0.113921 -0.299415
0.211825 0.100471 0.300441
0.290469 0.0912371 0.501538
0.0216628 -0.0131165 -0.358432
0.0540838 -0.114054 -0.399123
0.215732 -0.21172 -0.0747269
0.127253 -0.272238 -0.389432
0.105656 0.298513 0.244892
0.082459 0.284037 0.162787
0.0581405 0.263525 0.0592224
0.210529 0.234642 0.447976
0.243635 0.119372 0.408256
0.281828 0.0948676 0.470895
0.193763 0.0263564 0.149091
0.191936 -0.0597034 0.0453231
0.0740889 -0.158434 -0.40674
0.217355 -0.202845 -0.0637872
0.219072 -0.232651 -0.100485
0.208703 -0.306212 -0.219575
0.138154 0.300691 0.317117
0.167147 0.28021 0.370669
0.0433941 0.25176 -0.00349987
0.190139 0.255317 0.406175
-0.00493387 0.22246 -0.176291
0.252389 0.190453 0.494731
0.298935 0.123319 0.548922
0.308733 0.100829 0.537613
0.19357 0.0611225 0.187357
0.0404324 -0.0534644 -0.379824
0.209419 -0.0926758 0.0322469
0.102445 -0.205829 -0.402643
0.222033 -0.247606 -0.120903
0.198881 -0.339937 -0.299645
0.140919 0.299405 0.31835
0.0201749 0.254135 -0.0728559
-0.00422475 0.164245 -0.253107
0.000506612 0.0980696 -0.316017
0.310055 0.109427 0.542148
0.210366 0.0758519 0.235973
0.213394 -0.0191269 0.124666
0.213901 -0.0900699 0.0322411
0.0986548 -0.193429 -0.404309
0.22321 -0.297289 -0.19974
0.159667 0.286095 0.341485
0.0226104 0.254834 -0.0701018
0.191624 0.254433 0.386675
0.238052 0.206236 0.452486
0.00212508 0.142053 -0.274402
0.00398309 0.093506 -0.31982
0.225799 0.0913791 0.283793
0.189952 0.0561544 0.138051
0.0635617 -0.100985 -0.397257
0.08285 -0.155705 -0.406028
0.2264 -0.275608 -0.162435
0.13044 0.30444 0.273126
0.0970459 0.280958 0.151735
0.0899914 0.273601 0.11396
0.185941 0.260593 0.370283
0.209557 0.235998 0.3979
0.276066 0.174437 0.50762
0.251597 0.113267 0.364495
0.23323 0.0916583 0.286075
0.192498 0.0568651 0.140625
0.0503168 -0.0486107 -0.381343
0.230944 -0.142349 -0.00357472
0.234389 -0.253992 -0.129303
0.216047 -0.328717 -0.26799
0.111282 0.289124 0.189427
0.172235 0.272719 0.326234
0.0709254 0.247675 0.0182693
0.220932 0.225575 0.411566
0.00638083 0.138972 -0.279499
0.238632 0.101319 0.307628
0.315825 0.0830797 0.499891
0.200129 -0.0264861 0.0496434
0.0738625 -0.106094 -0.398686
0.238631 -0.209832 -0.07351
0.161813 -0.283709 -0.372821
0.21492 -0.332889 -0.294555
0.124451 0.296008 0.219861
0.0233538 0.251946 -0.111372
0.194512 0.252378 0.358517
0.0113474 0.215149 -0.19839
0.00482789 0.176561 -0.249054
0.0176304 0.0940428 -0.323026
0.220704 0.0767934 0.219723
0.217438 0.0740193 0.199697
0.205916 0.0372089 0.136859
0.224438 -0.015229 0.116253
0.0839186 -0.125699 -0.401647
0.24442 -0.205957 -0.071085
0.235132 -0.30546 -0.21503
0.12838 0.297902 0.230275
0.106331 0.279534 0.138177
0.0530982 0.252544 -0.0416963
0.199351 0.250761 0.353325
0.244529 0.202839 0.428313
0.0168179 0.124698 -0.298311
0.0253207 0.0811729 -0.330025
0.329745 0.0865176 0.518471
0.0546449 -0.00479025 -0.35831
0.229321 -0.0345341 0.1007
0.0792303 -0.0895448 -0.395131
0.131851 -0.2087 -0.39268
0.181306 -0.28974 -0.360833
0.127388 0.292514 0.206791
0.100527 0.267473 0.0952341
0.0809587 0.246804 0.0246713
0.0148439 0.21233 -0.210376
0.246824 0.199859 0.414781
0.0183774 0.152167 -0.269772
0.28337 0.102826 0.397469
0.332164 0.0794589 0.504285
0.211602 0.0450033 0.124636
0.226121 -0.0556263 0.0476441
0.250159 -0.186361 -0.0533328
0.152842 0.296032 0.270793
0.122747 0.283428 0.168691
0.0349502 0.254638 -0.105924
0.0235757 0.22987 -0.176487
0.277255 0.179505 0.460572
0.314785 0.147987 0.528094
0.296212 0.0968962 0.411801
0.22392 0.0753518 0.196188
0.0594596 0.0130373 -0.348565
0.229889 -0.0449944 0.0500078
0.141323 -0.212339 -0.388876
0.178189 -0.271849 -0.364231
0.241354 -0.319198 -0.246268
0.17859 0.27422 0.29373
0.0296262 0.242325 -0.152885
0.235159 0.215662 0.381766
0.255152 0.189873 0.405268
0.284897 0.176756 0.473065
0.2662 0.107687 0.333515
0.262014 0.0949874 0.303929
0.251295 0.0778136 0.249702
0.0639784 -0.00619566 -0.360176
0.241091 -0.0939593 0.0199137
0.1421 -0.206886 -0.389404
0.257955 -0.270683 -0.160836
0.239973 -0.322157 -0.267477
0.12782 0.276438 0.15138
0.0553454 0.255943 -0.0701429
0.082631 0.241628 -0.0123812
0.0232025 0.210455 -0.227398
0.0314755 0.135497 -0.288922
0.260398 0.0878191 0.285899
0.224832 0.0682175 0.167257
0.0670905 0.000614154 -0.355764
0.0780251 -0.0491331 -0.387565
0.122021 -0.159707 -0.399196
0.165871 -0.231059 -0.375822
0.194038 -0.283229 -0.353297
0.247403 -0.317316 -0.261458
0.139569 0.278706 0.176898
0.0448065 0.253632 -0.119892
0.0807192 0.244419 -0.0365369
0.213969 0.243932 0.337933
0.238912 0.213293 0.368357
0.0344288 0.149807 -0.275952
0.240158 0.0795318 0.21243
0.236776 0.074419 0.186712
0.0862043 -0.0518735 -0.389241
0.260052 -0.14968 -0.0251887
0.161924 -0.220538 -0.379562
0.228143 -0.317525 -0.308612
0.146719 0.275885 0.175696
0.051324 0.256351 -0.10308
0.204728 0.253327 0.3127
0.0982592 0.237245 -0.00953641
0.0308001 0.175617 -0.259141
0.0407216 0.111132 -0.313701
0.316323 0.090044 0.415911
0.252199 0.0778791 0.2261
0.344525 0.0695521 0.464919
0.232192 -0.0249895 0.0533276
0.155788 -0.206888 -0.384596
0.252001 -0.314116 -0.256793
0.132118 0.254302 0.0996073
0.217242 0.241942 0.323876
0.0379636 0.165679 -0.266295
0.316032 0.158888 0.491914
0.34012 0.131034 0.517352
0.247228 0.07691 0.197201
0.356445 0.0693324 0.493008
0.239524 -0.020923 0.0667266
0.259549 -0.109634 0.00140984
0.174718 -0.226423 -0.372076
0.240602 -0.311395 -0.292181
0.0550815 0.259303 -0.120936
0.0825369 0.25343 -0.0558132
0.132536 0.248625 0.0887386
0.0378492 0.226038 -0.202795
0.0355931 0.217954 -0.22358
0.26279 0.186021 0.36566
0.295291 0.161556 0.420961
0.0540798 0.0912897 -0.328849
0.273146 0.0746419 0.261773
0.345171 0.0694706 0.451791
0.250622 0.000826972 0.104112
0.254224 -0.0319125 0.0674082
0.11886 -0.108681 -0.398279
0.274295 -0.226343 -0.109488
0.217675 -0.286024 -0.332911
0.251396 -0.303076 -0.274351
0.160728 0.272821 0.175207
0.0459835 0.239523 -0.188032
0.0382816 0.210839 -0.23504
0.0490928 0.147923 -0.279776
0.329188 0.147523 0.488671
0.320392 0.093997 0.401169
0.262262 0.0758163 0.208356
0.0870346 0.00271 -0.356455
0.253272 -0.0368697 0.0516077
0.14743 -0.164913 -0.393857
0.21583 -0.2694 -0.33488
0.186424 0.271831 0.236469
0.208136 0.251737 0.272572
0.230765 0.228885 0.308849
0.260343 0.1927 0.345288
0.318757 0.154249 0.451233
0.357381 0.113573 0.51199
0.273355 0.0700125 0.234559
0.28371 0.0684298 0.250328
0.0911894 -0.0157345 -0.370721
0.14066 -0.142993 -0.397875
0.275753 -0.184081 -0.0731645
0.220925 -0.265887 -0.329169
0.0646861 0.265283 -0.121762
0.164829 0.260371 0.150707
0.151437 0.240846 0.0955382
0.225463 0.234545 0.291204
0.0461267 0.212821 -0.235698
0.272019 0.180534 0.346375
0.338115 0.140627 0.488623
0.358262 0.117881 0.503085
0.330716 0.0871257 0.408033
0.237029 0.0646992 0.106073
0.350517 0.0682782 0.415697
0.373236 0.0618577 0.475695
0.248817 0.0146116 0.0737476
0.257518 -0.00533272 0.0861651
0.114604 -0.0761767 -0.395022
0.282331 -0.217359 -0.109468
0.249277 -0.286564 -0.28644
0.0590686 0.261727 -0.146344
0.187097 0.268546 0.219099
0.208023 0.249054 0.244485
0.149867 0.21839 0.0520508
0.267018 0.186984 0.338898
0.301029 0.151241 0.385693
0.0673627 0.10401 -0.32084
0.338548 0.0857809 0.397829
0.354172 0.0657628 0.418274
0.108386 -0.0478611 -0.389705
0.27497 -0.123118 -0.0186733
0.278762 -0.15961 -0.0512942
0.21495 -0.242728 -0.338324
0.252577 -0.280566 -0.281822
0.28079 -0.283289 -0.203301
0.181502 0.264524 0.187563
0.172056 0.240074 0.123345
0.245192 0.210327 0.286189
0.261019 0.192414 0.308742
0.27827 0.172399 0.335636
0.0698921 0.103208 -0.321489
0.263724 0.0790067 0.184079
0.379879 0.0625121 0.477988
0.253769 0.0204171 0.0827621
0.273249 -0.0874492 0.00072435
0.287666 -0.225795 -0.124055
0.249135 -0.272111 -0.289193
0.0841892 0.263937 -0.0962927
0.196432 0.254441 0.195301
0.18421 0.245978 0.149655
0.134709 0.23096 -0.00837082
0.2409 0.215883 0.274056
0.261787 0.189513 0.294386
0.285364 0.162391 0.331833
0.348655 0.134021 0.470402
0.32965 0.0954833 0.368448
0.313047 0.0850652 0.319444
0.34292 0.0831264 0.388452
0.372553 0.0576096 0.442131
0.11374 -0.0371515 -0.384561
0.157209 -0.144125 -0.394214
0.213526 -0.22566 -0.343312
0.289619 -0.263569 -0.184346
0.0637707 0.252923 -0.178275
0.20408 0.247784 0.200157
0.0590097 0.223668 -0.226769
0.172612 0.215777 0.0774149
0.183286 0.21512 0.0968832
0.262423 0.186917 0.281378
0.277523 0.170495 0.302081
0.327398 0.142249 0.414451
0.0810319 0.0921183 -0.328721
0.0916396 0.0534544 -0.344934
0.117773 0.0042941 -0.34373
0.158102 -0.131469 -0.392797
0.29037 -0.1799 -0.0861257
0.226248 -0.228689 -0.327451
0.265813 -0.27022 -0.259821
0.106766 0.265953 -0.0606421
0.204948 0.243992 0.190549
0.195636 0.226779 0.136705
0.23475 0.220949 0.24235
0.241882 0.214142 0.256433
0.079902 0.151671 -0.276663
0.0794554 0.131124 -0.293118
0.0819836 0.115234 -0.310219
0.344914 0.131948 0.426074
0.265377 0.0849149 0.151599
0.296344 0.0757071 0.23451
0.387173 0.0743439 0.481889
0.118328 -0.0185105 -0.366047
0.288916 -0.119081 -0.0339674
0.291751 -0.169563 -0.0775098
0.243914 -0.240944 -0.301415
0.0794778 0.269118 -0.140261
0.0674893 0.216153 -0.23748
0.24036 0.213305 0.235915
0.309961 0.131061 0.323861
0.275189 0.0900755 0.183403
0.0937443 0.0685171 -0.339773
0.0978191 0.056022 -0.34388
0.129377 0.0042339 -0.338102
0.141679 -0.0759535 -0.38964
0.29697 -0.209197 -0.127876
0.25434 -0.238998 -0.28715
0.284928 -0.255818 -0.21782
0.115542 0.26706 -0.0573685
0.0720322 0.228561 -0.223847
0.215907 0.218417 0.158962
0.247079 0.205287 0.235829
0.2881 0.160519 0.29087
0.311 0.12891 0.314749
0.365853 0.116748 0.448281
0.263876 0.0848686 0.137493
0.335955 0.0787231 0.324308
0.322265 0.0749377 0.278785
0.341644 0.073763 0.328791
0.363822 0.0683794 0.392627
0.344285 0.0685094 0.318117
0.272685 -0.00836746 0.0426083
0.294499 -0.132874 -0.0503053
0.298031 -0.192486 -0.113267
0.25757 -0.234936 -0.283649
0.0884182 0.270976 -0.133922
0.14466 0.244722 -0.0148915
0.231323 0.211987 0.185639
0.210075 0.197623 0.109932
0.201944 0.189292 0.0682564
0.281855 0.165536 0.267964
0.29114 0.147868 0.270336
0.297643 0.141111 0.280472
0.326415 0.121253 0.339217
0.31687 0.112534 0.296688
0.375904 0.107386 0.454
0.263853 0.0880732 0.127346
0.364029 0.0619912 0.364515
0.141133 -0.0129073 -0.343155
0.293962 -0.231767 -0.191214
0.080125 0.235268 -0.215431
0.233861 0.197545 0.163533
0.210636 0.188163 0.092761
0.0896907 0.162333 -0.270924
0.267689 0.16304 0.214035
0.27442 0.15434 0.221952
0.287685 0.144722 0.25038
0.287317 0.132697 0.230592
0.303195 0.125967 0.268733
0.288638 0.12084 0.22056
0.304757 0.118191 0.2609
0.311843 0.109066 0.269204
0.304051 0.10529 0.242917
0.267055 0.0967254 0.129683
0.312887 0.0919509 0.251515
0.256865 0.0818537 0.0847216
0.112903 0.059277 -0.340206
0.115838 0.0445488 -0.342857
0.270037 0.0156295 0.0419513
0.143608 -0.0478232 -0.380961
0.187044 -0.142563 -0.377277
0.30076 -0.199284 -0.127831
0.26793 -0.22697 -0.268298
0.281544 -0.235179 -0.233536
0.124523 0.268928 -0.0607737
0.0843748 0.220082 -0.235537
0.226273 0.184503 0.120622
0.229182 0.175707 0.113747
0.243962 0.171369 0.147302
0.231589 0.163724 0.0979423
0.263466 0.156582 0.186043
0.107896 0.120956 -0.297402
0.267338 0.114002 0.139239
0.267351 0.105832 0.131123
0.118706 0.0585363 -0.339221
0.136187 0.0198921 -0.33482
0.285214 -0.0367922 0.00184055
0.302625 -0.143858 -0.0779183
0.303858 -0.188746 -0.130234
0.295504 -0.219611 -0.191627
0.118415 0.271942 -0.0863491
0.0861654 0.215861 -0.239972
0.251283 0.154911 0.140538
0.258221 0.143303 0.14501
0.3599 0.118796 0.386745
0.379247 0.0993177 0.421593
0.394979 0.0785911 0.438447
0.273033 0.0364902 0.0460674
0.287299 -0.0182819 0.0227689
0.181465 -0.10415 -0.377914
0.201875 -0.147318 -0.367105
0.264959 -0.215737 -0.278904
0.111954 0.27441 -0.109638
0.181438 0.219769 0.0176748
0.24008 0.154039 0.0933017
0.260833 0.123324 0.105398
0.386121 0.0923828 0.422575
0.272029 0.0559722 0.0627355
0.282772 0.00833123 0.0371536
0.166612 -0.070224 -0.381194
0.305908 -0.131522 -0.0775613
0.306739 -0.15636 -0.105635
0.253336 -0.200557 -0.302499
0.288246 -0.213218 -0.223351
0.0949389 0.220346 -0.235527
0.114912 0.134909 -0.28289
0.357457 0.094794 0.337554
0.361754 0.088554 0.342244
0.38745 0.0772308 0.395243
0.137948 0.0366266 -0.336192
0.17297 -0.0229183 -0.325877
0.177543 -0.0803759 -0.37849
0.204611 -0.12886 -0.363402
0.234083 -0.172196 -0.336408
0.262155 -0.200094 -0.29033
0.107923 0.265379 -0.15545
0.182892 0.229344 0.00135521
0.103682 0.182948 -0.263469
0.125509 0.0949363 -0.319647
0.275996 0.0434354 0.0419075
0.291354 -0.00566828 0.0166976
0.290504 -0.0358362 -0.0181786
0.182647 -0.0801464 -0.375923
0.30855 -0.155229 -0.117932
0.307082 -0.174624 -0.147042
0.271038 -0.199104 -0.274433
0.113662 0.266347 -0.151963
0.102223 0.222005 -0.233478
0.121439 0.14197 -0.277719
0.148537 0.0358115 -0.332642
0.178546 -0.0315807 -0.33403
0.178583 -0.0454071 -0.356603
0.303833 -0.0828985 -0.0590489
0.224481 -0.136103 -0.345272
0.309058 -0.154272 -0.125372
0.267696 -0.190426 -0.283242
0.14123 0.274024 -0.0812486
0.107942 0.233767 -0.216523
0.257669 0.143839 0.0796107
0.285567 0.0337666 0.0209932
0.183958 -0.0419186 -0.345527
0.222509 -0.125469 -0.346732
0.256868 -0.170149 -0.305196
0.122033 0.268385 -0.143579
0.111505 0.210535 -0.245102
0.269572 0.122654 0.0841712
0.289574 0.0273342 0.014483
0.306472 -0.0817877 -0.0699031
0.311081 -0.110686 -0.0976009
0.248443 -0.151121 -0.318015
0.29815 -0.173308 -0.207437
0.180058 0.248327 -0.0191848
0.140416 0.103486 -0.305694
0.173402 0.0206502 -0.319288
0.202925 -0.0787952 -0.361387
0.311648 -0.11305 -0.105297
0.257956 -0.149806 -0.30307
0.281978 -0.171266 -0.255734
0.162434 0.263951 -0.0631989
0.186481 0.247282 -0.0198941
0.241444 0.173103 0.0491488
0.147051 0.102356 -0.303317
0.288387 0.0488297 0.0193216
0.299555 -0.0210739 -0.041695
0.304877 -0.0563827 -0.0695965
0.224969 -0.10004 -0.342599
0.307393 -0.150611 -0.16981
0.287501 -0.16371 -0.243042
0.128152 0.243976 -0.197583
0.248192 0.170605 0.0412499
0.158833 0.0729772 -0.317186
0.212427 -0.027303 -0.295062
0.303218 -0.0432904 -0.0643729
0.309834 -0.077896 -0.0922847
0.263373 -0.139903 -0.292913
0.141239 0.269841 -0.133097
0.186846 0.253398 -0.0405502
0.26772 0.142477 0.0515622
0.291543 0.055839 0.0144847
0.195131 0.0121171 -0.304665
0.228994 -0.0479027 -0.288309
0.234366 -0.0772971 -0.312848
0.260206 -0.130609 -0.29793
0.278884 -0.143684 -0.262658
0.159847 0.271341 -0.101557
0.131355 0.212225 -0.242031
0.284262 0.104201 0.0415983
0.177094 0.0621943 -0.308931
0.199453 0.0152518 -0.301152
0.303694 -0.0328962 -0.0706317
0.237176 -0.0639915 -0.292122
0.310879 -0.0772109 -0.104147
0.31239 -0.0902899 -0.121653
0.312703 -0.105751 -0.133752
0.294244 -0.135441 -0.227741
0.175287 0.262289 -0.0725518
0.133146 0.211913 -0.241983
0.159726 0.149217 -0.265882
0.173164 0.116685 -0.265624
0.176078 0.0878892 -0.291508
0.185825 0.0479131 -0.307097
0.236502 -0.0287669 -0.271131
0.244741 -0.050401 -0.27256
0.253841 -0.0889223 -0.289233
0.311462 -0.11355 -0.158348
0.308305 -0.123498 -0.181104
0.15478 0.267708 -0.135521
0.143894 0.224645 -0.223482
0.276545 0.131353 0.0270214
0.182158 0.0956852 -0.271964
0.193308 0.0487951 -0.300314
0.303288 -0.00843975 -0.0709833
0.25433 -0.054803 -0.265219
0.310509 -0.0980462 -0.160408
0.305142 -0.118427 -0.194449
0.146354 0.215314 -0.234248
0.177802 0.13107 -0.255729
0.189459 0.0690596 -0.294266
0.30347 0.000915304 -0.0640359
0.266981 -0.0719635 -0.260264
0.295537 -0.103586 -0.21949
0.191032 0.259342 -0.0731302
0.153383 0.203944 -0.242879
0.269246 0.150276 0.0124441
0.199756 0.0817512 -0.26541
0.206972 0.048263 -0.287324
0.306393 -0.0361553 -0.111606
0.291205 -0.0899309 -0.226427
0.157734 0.23275 -0.205882
0.161444 0.174491 -0.259846
0.206018 0.10424 -0.238013
0.224548 0.0318849 -0.274202
0.271824 -0.0512446 -0.244755
0.302876 -0.082644 -0.195155
0.160566 0.234356 -0.202097
0.164571 0.203146 -0.239046
0.281948 0.128543 -0.00579681
0.220396 0.0793814 -0.241507
0.304576 -0.0116622 -0.120046
0.28873 -0.0652347 -0.225328
0.295874 -0.0739731 -0.212974
0.16795 0.243884 -0.181922
0.238952 0.213586 -0.0239937
0.257076 0.185829 -0.0162488
0.288172 0.113663 -0.0139084
0.220727 0.048292 -0.276669
0.246041 0.0210336 -0.251195
0.304363 -0.0101625 -0.122732
0.304823 -0.0349609 -0.150418
0.296114 -0.0525042 -0.201921
0.178433 0.254547 -0.150873
0.264152 0.175727 -0.0195722
0.296462 0.0916924 -0.0290721
0.260769 0.00737897 -0.236927
0.299427 -0.031099 -0.174127
0.297334 -0.0469537 -0.194544
0.228326 0.236311 -0.0548599
0.281701 0.142083 -0.0211298
0.307376 0.0294249 -0.0903281
0.280204 -0.0067702 -0.211724
0.234477 0.230191 -0.0522224
0.200398 0.144933 -0.248843
0.305597 0.0673011 -0.053703
0.266515 0.021346 -0.226206
0.288116 0.000197006 -0.191692
0.204099 0.255459 -0.11559
0.183993 0.219188 -0.212682
0.265465 0.184759 -0.0382358
0.228477 0.112962 -0.228709
0.244962 0.0767772 -0.224588
0.308624 0.0470341 -0.092576
0.262323 0.0294201 -0.230065
0.27329 0.0186119 -0.216087
0.205142 0.249398 -0.129838
0.193816 0.222489 -0.199739
0.214887 0.138022 -0.241087
0.253842 0.0783741 -0.215908
0.269674 0.0338474 -0.216416
0.283142 0.0301479 -0.192311
0.208059 0.2422 -0.143658
0.199465 0.20863 -0.21408
0.294142 0.128844 -0.0512072
0.306422 0.0597069 -0.105311
