ply
format ascii 1.0
comment Created by Open3D
element vertex 1635
property double x
property double y
property double z
end_header
-0.058095 0.103104 0.172548
-0.0537706 0.093741 0.174141
-0.137014 0.363872 -0.216858
-0.134874 0.355179 -0.225436
-0.030625 0.0391213 0.209903
-0.0234987 0.0489689 0.140306
-0.00670608 -0.00823346 0.216352
-0.0114904 0.0121599 0.175379
-0.110062 0.31789 -0.247555
0.00176782 -0.0311 0.224843
-0.00159421 -0.0171616 0.200106
-0.0867303 0.277853 -0.261224
0.016673 -0.0289417 0.11737
0.0207653 -0.0308439 0.121496
0.0296554 -0.0539954 0.131129
0.0448515 -0.087158 0.146413
0.0513861 -0.0986252 0.147796
-0.0486162 0.208348 -0.279887
-0.038822 0.189677 -0.28552
0.0633163 -0.119406 0.125815
0.0722887 -0.116318 0.0601225
0.0940802 -0.190005 0.164295
0.0909284 -0.177818 0.141969
0.0593495 -0.0687437 -0.0170461
0.0904797 -0.176091 0.132106
0.0870401 -0.167261 0.109232
0.0645099 -0.0806785 -0.0110995
0.109544 -0.219763 0.174449
0.120871 -0.243066 0.17921
0.0128067 0.0869437 -0.278688
0.129565 -0.266559 0.181129
0.0337155 0.0365518 -0.267367
0.088378 -0.12052 -0.0598739
0.0972131 -0.133359 -0.0395914
0.0420414 0.0203796 -0.2612
0.0867442 -0.108135 -0.075483
0.0856125 -0.113351 -0.0765056
0.117105 -0.20004 0.031971
0.117105 -0.203591 0.0373134
0.117302 -0.207764 0.0435166
0.128411 -0.227311 0.0511584
0.164427 -0.337703 0.190332
0.176521 -0.357791 0.198473
0.0982765 -0.122816 -0.128937
0.103559 -0.138003 -0.120581
0.106556 -0.15383 -0.107176
0.107616 -0.137819 -0.121912
0.142084 -0.250938 0.027112
0.0902934 -0.0876153 -0.208862
0.165544 -0.311715 0.100943
0.168171 -0.32261 0.117653
0.1233 -0.183762 -0.0784853
0.156322 -0.287817 0.0609861
0.162028 -0.305543 0.0888694
0.122228 -0.180301 -0.0927042
0.109513 -0.122539 -0.19198
0.147207 -0.243198 -0.0274013
0.141752 -0.224257 -0.0661167
0.140528 -0.225811 -0.0647719
0.134366 -0.200974 -0.102852
0.141616 -0.220354 -0.0725046
-0.209747 0.403169 0.147373
-0.208305 0.398435 0.153272
-0.22964 0.475852 0.0201961
-0.172572 0.31538 0.180872
-0.16797 0.307492 0.180636
-0.143797 0.263833 0.188185
-0.204785 0.454035 -0.110271
-0.190977 0.433666 -0.11524
-0.117608 0.211062 0.181069
-0.180167 0.42011 -0.143749
-0.0749307 0.128636 0.171562
-0.0639176 0.11276 0.171617
-0.0634122 0.110196 0.171979
-0.0342021 0.0399976 0.207495
-0.0299499 0.0311814 0.217962
-0.0253203 0.0195071 0.231134
-0.0382022 0.0714253 0.101185
-0.00505818 -0.0180088 0.216742
-0.00247193 -0.0218825 0.217103
-0.113312 0.313875 -0.249767
0.00227602 -0.0361563 0.230146
0.00111574 -0.0261589 0.206391
0.00625682 -0.0387478 0.217107
0.00715194 -0.0504202 0.224086
-0.0295928 0.0717211 0.0533372
-0.0841507 0.26511 -0.270923
-0.00308641 0.0187988 0.0657351
-0.00149525 0.0139832 0.0722779
0.0205662 -0.0365465 0.123825
0.0265343 -0.0567481 0.128312
0.0406643 -0.0905855 0.145565
-0.032055 0.174368 -0.287066
0.0574534 -0.107461 0.0695467
0.0860083 -0.191351 0.169668
0.0886556 -0.185008 0.161912
0.0689106 -0.121134 0.0591297
-0.0128999 0.128982 -0.285134
-0.00646569 0.118488 -0.283416
-0.00305993 0.107947 -0.282551
0.113048 -0.244264 0.185775
0.122375 -0.261208 0.184529
0.0856754 -0.116943 -0.073857
0.0858931 -0.120227 -0.0717761
0.0859722 -0.119333 -0.0709121
0.115316 -0.215407 0.0522708
0.097303 -0.139501 -0.0473521
0.116888 -0.2096 0.0460891
0.0855892 -0.114253 -0.092478
0.118696 -0.221341 0.0545479
0.151399 -0.315947 0.186152
0.12347 -0.223703 0.0533676
0.0554871 -0.0160877 -0.245574
0.111616 -0.186628 -0.00947235
0.111284 -0.164672 -0.050315
0.128924 -0.236949 0.0469835
0.108978 -0.166729 -0.0540916
0.168443 -0.353845 0.197783
0.124615 -0.203631 -0.0285461
0.177086 -0.371641 0.20683
0.0808532 -0.0681557 -0.217913
0.104347 -0.147438 -0.111456
0.106634 -0.155439 -0.105883
0.124227 -0.204623 -0.0299475
0.123006 -0.203739 -0.0324152
0.131865 -0.216409 -0.0224176
0.125421 -0.21704 -0.0307126
0.172604 -0.350962 0.151063
0.116855 -0.184119 -0.0809423
0.153398 -0.293119 0.0661193
0.154965 -0.296278 0.0716342
0.115833 -0.175192 -0.0975706
0.149933 -0.272985 0.0223559
0.145328 -0.260703 -0.00219035
0.110962 -0.141466 -0.176979
0.111548 -0.145253 -0.173592
0.123617 -0.175592 -0.139098
0.126897 -0.187903 -0.123192
0.131336 -0.200962 -0.10501
-0.23091 0.453773 0.0880712
-0.20425 0.377363 0.172744
-0.237223 0.474988 0.0331677
-0.18183 0.33244 0.183144
-0.220593 0.45764 -0.0163715
-0.219459 0.461795 -0.0349137
-0.222611 0.468442 -0.0663371
-0.196176 0.439366 -0.10913
-0.126645 0.223505 0.184996
-0.125296 0.2186 0.184099
-0.111394 0.193568 0.181179
-0.175601 0.407399 -0.163856
-0.0929713 0.158658 0.181951
-0.173033 0.403305 -0.169401
-0.161841 0.388251 -0.190599
-0.151755 0.372254 -0.209332
-0.150973 0.370153 -0.211738
-0.148818 0.368177 -0.213764
-0.0292524 0.0173243 0.231719
-0.0302297 0.0470768 0.132479
-0.0420682 0.0865119 0.0697661
-6.15194e-05 -0.040022 0.233486
0.00139327 -0.0400249 0.233825
0.00686072 -0.0611003 0.24843
0.00784203 -0.0538555 0.22761
-0.0968121 0.277029 -0.263599
0.00761777 -0.0274092 0.111217
0.0185555 -0.0457045 0.124384
-0.0616842 0.215191 -0.278869
0.0419874 -0.097339 0.146233
0.0498385 -0.111823 0.142929
0.0549312 -0.118744 0.112567
0.0558142 -0.109242 0.0739963
0.0790272 -0.178566 0.156711
0.0786874 -0.181092 0.16132
0.0805551 -0.185526 0.165925
0.0599441 -0.10986 0.0635246
0.0821027 -0.177113 0.150071
0.081964 -0.183632 0.163294
0.0829827 -0.185936 0.165551
0.082547 -0.176342 0.142823
0.0861462 -0.199966 0.17537
0.0831116 -0.167391 0.106778
0.00786738 0.0759723 -0.279211
0.0304498 0.0309097 -0.26786
0.0857048 -0.118279 -0.0785823
0.0860645 -0.12296 -0.0707571
0.143006 -0.3125 0.190018
0.0930956 -0.138873 -0.0532225
0.147168 -0.317324 0.189681
0.0841583 -0.105838 -0.118719
0.0864189 -0.125877 -0.107196
0.105888 -0.184405 -0.0290986
0.105945 -0.166126 -0.0585837
0.163678 -0.348022 0.195671
0.110843 -0.174393 -0.0551713
0.0970324 -0.136898 -0.117591
0.101927 -0.141311 -0.116193
0.128203 -0.21476 -0.0245269
0.119236 -0.20235 -0.0426343
0.0840607 -0.0903341 -0.209747
0.160126 -0.320401 0.106789
0.16094 -0.32013 0.107365
0.153483 -0.303062 0.0784088
0.17057 -0.35256 0.151795
0.14896 -0.284841 0.0424759
0.150348 -0.276573 0.0285834
0.139603 -0.243852 -0.0335767
0.139697 -0.251076 -0.0224829
0.142018 -0.25323 -0.0172027
0.104568 -0.135981 -0.184612
0.137466 -0.230955 -0.0592894
0.135549 -0.231131 -0.0608162
0.116115 -0.1665 -0.152447
0.129134 -0.205381 -0.101496
0.131668 -0.209346 -0.0950843
-0.238027 0.462132 0.074655
-0.241258 0.466165 0.0647141
-0.229093 0.434404 0.108681
-0.213415 0.391802 0.157422
-0.223635 0.455602 -0.00800972
-0.17004 0.298679 0.187467
-0.171762 0.296004 0.190307
-0.162649 0.27418 0.196309
-0.220173 0.470002 -0.0746423
-0.152859 0.258565 0.195467
-0.148486 0.253963 0.194096
-0.134623 0.230763 0.189169
-0.202767 0.44489 -0.110279
-0.199466 0.441667 -0.109136
-0.129526 0.219517 0.185926
-0.159395 0.383482 -0.196792
-0.0666314 0.101597 0.1729
-0.148744 0.365672 -0.216771
-0.0542109 0.0768059 0.178268
-0.143428 0.352945 -0.228616
-0.0385246 0.0388836 0.206382
-0.0185989 -0.00532873 0.233127
-0.0119599 -0.0170259 0.222531
-0.0335373 0.0442211 0.129402
-0.0434052 0.0803921 0.0686663
0.006892 -0.064945 0.243378
-0.106505 0.29108 -0.254877
-0.0285299 0.0595319 0.0567012
-0.0932532 0.26737 -0.271919
-0.00343606 -0.00119547 0.0876429
-0.00289197 -0.00465365 0.091454
-0.0720711 0.227474 -0.274274
0.024744 -0.0667891 0.125105
0.0267378 -0.0791577 0.131547
-0.0587191 0.205 -0.281562
0.0531931 -0.118556 0.114947
-0.0385637 0.167973 -0.288584
-0.038194 0.154673 -0.295929
0.0920006 -0.217584 0.184992
-0.0127079 0.110941 -0.284088
0.0663666 -0.133298 0.0601621
0.0695766 -0.138469 0.0649501
0.0935133 -0.225926 0.177901
0.107792 -0.246738 0.191435
-0.000713059 0.0862142 -0.281631
0.00483192 0.0743266 -0.279921
0.0069311 0.0693468 -0.279104
0.116469 -0.268594 0.191011
0.0991228 -0.184572 0.00853794
0.099457 -0.185233 0.00618827
0.143813 -0.319592 0.192984
0.0418382 0.00471127 -0.258483
0.0798167 -0.108516 -0.10994
0.0906178 -0.142783 -0.0681101
0.082663 -0.110466 -0.117768
0.0882069 -0.137958 -0.0819044
0.085045 -0.123307 -0.108411
0.106805 -0.185452 -0.0320785
0.0875537 -0.128571 -0.112123
0.0899473 -0.135845 -0.10484
0.101173 -0.166812 -0.0656685
0.105056 -0.186045 -0.0376849
0.110983 -0.19493 -0.046624
0.134085 -0.255915 0.02578
0.17755 -0.390895 0.216826
0.114362 -0.203294 -0.0538173
0.178011 -0.385916 0.200694
0.10809 -0.173484 -0.0948214
0.133705 -0.25717 0.0210183
0.158767 -0.33101 0.1201
0.167444 -0.349489 0.146969
0.123777 -0.223405 -0.0349852
0.0884183 -0.103485 -0.207325
0.144411 -0.272042 0.0146374
0.0939077 -0.120052 -0.199441
0.137037 -0.250927 -0.0250716
0.139877 -0.255797 -0.015329
0.0999371 -0.133797 -0.188025
0.112399 -0.173894 -0.148167
-0.234313 0.442363 0.0982544
-0.234215 0.438798 0.101887
-0.222445 0.405853 0.137978
-0.193893 0.340474 0.188749
-0.195289 0.340868 0.189331
-0.234098 0.459025 0.0059867
-0.228233 0.453979 -0.00903972
-0.173232 0.291251 0.193947
-0.227518 0.467627 -0.0672604
-0.1658 0.275297 0.197662
-0.216492 0.460571 -0.106145
-0.13985 0.227216 0.191656
-0.134771 0.223599 0.188764
-0.137489 0.224991 0.190237
-0.135071 0.218653 0.187965
-0.179666 0.406472 -0.165929
-0.0959646 0.142175 0.180347
-0.0898465 0.129894 0.176634
-0.0867811 0.129035 0.175629
-0.160237 0.375447 -0.206814
-0.0731203 0.103601 0.173502
-0.151666 0.360753 -0.222726
-0.0506705 0.0549907 0.186484
-0.0469143 0.0460833 0.194064
-0.0323525 0.00277874 0.242079
-0.00146108 -0.0567512 0.247265
-0.042871 0.0742334 0.0623565
-0.0171193 -0.0077238 0.176657
-0.111501 0.290928 -0.254972
0.00248543 -0.0669022 0.233762
-0.0306106 0.0514282 0.0564816
-0.0237016 0.0391383 0.0481297
-0.00608398 -0.000209412 0.084798
-0.00829529 -0.00273161 0.0859502
-0.00569968 -0.0117493 0.0959864
-0.00259888 -0.0128347 0.0986689
-0.0795789 0.239291 -0.270227
0.0078689 -0.0383408 0.114974
0.0167699 -0.0633681 0.118706
0.0321963 -0.0904201 0.142267
-0.0593566 0.197081 -0.283963
-0.0526199 0.181941 -0.287941
-0.0417426 0.161388 -0.291636
0.0493465 -0.120906 0.101119
-0.0370694 0.150814 -0.296329
0.0854152 -0.206255 0.178999
-0.0238207 0.124507 -0.286662
0.075454 -0.17575 0.125847
0.0904495 -0.224886 0.184649
0.0778789 -0.175094 0.121922
0.0688787 -0.148838 0.0762009
0.0864501 -0.217966 0.168541
0.0932017 -0.230213 0.178405
-0.00264765 0.0809609 -0.281895
0.00312613 0.0753693 -0.280404
0.00395416 0.0730998 -0.280098
0.122025 -0.284303 0.192081
0.125325 -0.294033 0.193194
0.098279 -0.190119 0.0260133
0.1063 -0.213221 0.048196
0.0417934 -0.0105054 -0.253848
0.0895352 -0.142506 -0.0710349
0.0814233 -0.115677 -0.109207
0.0463854 -0.0256052 -0.247043
0.152134 -0.349169 0.200047
0.0841463 -0.119999 -0.117526
0.0858794 -0.125352 -0.114385
0.0978272 -0.167892 -0.072937
0.0964498 -0.155254 -0.0973565
0.110688 -0.198051 -0.0523883
0.0781917 -0.0929372 -0.210616
0.110211 -0.184143 -0.0803972
0.156495 -0.333743 0.121581
0.160799 -0.348743 0.142298
0.164072 -0.353056 0.14894
0.173678 -0.3826 0.191367
0.152226 -0.314081 0.0899234
0.154453 -0.325061 0.106915
0.12209 -0.228146 -0.0368771
0.146044 -0.289694 0.0488494
0.0859754 -0.111283 -0.206567
0.0861468 -0.111922 -0.206387
0.0911622 -0.117841 -0.201921
0.0937355 -0.124372 -0.196448
0.0910897 -0.124182 -0.19755
0.114351 -0.180632 -0.140139
0.123798 -0.206707 -0.103786
-0.246122 0.462301 0.0696908
-0.244987 0.467298 0.058798
-0.232999 0.421379 0.118543
-0.218183 0.385054 0.16181
-0.217732 0.380376 0.167034
-0.21356 0.373641 0.17529
-0.232607 0.466878 -0.0707921
-0.168543 0.273717 0.199803
-0.206052 0.431295 -0.116106
-0.129693 0.201742 0.183603
-0.114258 0.170527 0.182824
-0.192249 0.411471 -0.161384
-0.10847 0.166099 0.183107
-0.189238 0.409733 -0.163543
-0.102693 0.148478 0.182628
-0.0789744 0.10557 0.174247
-0.0359139 0.000489777 0.242628
-0.142395 0.336611 -0.239104
-0.137535 0.329267 -0.24292
-0.0476963 0.0639756 0.0912961
-0.0459054 0.0596905 0.0981812
-0.0426041 0.0709193 0.0605088
-0.116086 0.291814 -0.254487
-0.040569 0.0645224 0.0583233
-0.0026471 -0.0492164 0.212112
-0.113368 0.284186 -0.25829
-0.105242 0.277452 -0.263308
-0.0126135 -0.00219229 0.0824382
-0.00642596 -0.014864 0.0979887
-0.0791945 0.229243 -0.273221
0.0279841 -0.0865935 0.13777
0.0421331 -0.117174 0.128726
0.0430704 -0.118647 0.112866
0.047038 -0.114715 0.0725931
-0.0318814 0.13697 -0.290785
-0.0283924 0.130213 -0.288194
0.0877674 -0.223642 0.185399
-0.0239515 0.11911 -0.286475
0.0905751 -0.228297 0.18762
0.0734794 -0.170199 0.105921
-0.0166914 0.102502 -0.284752
0.101533 -0.250319 0.198699
0.102658 -0.253215 0.198331
0.00360623 0.0649753 -0.279731
0.0115636 0.0503181 -0.276191
0.0881714 -0.186098 0.0271096
0.125788 -0.302491 0.196276
0.0959417 -0.197456 0.030019
0.0975594 -0.202415 0.0331041
0.100472 -0.208362 0.0395509
0.0931443 -0.18635 0.00602082
0.0893759 -0.146488 -0.0791785
0.0971735 -0.182521 -0.0384439
0.0559895 -0.0461278 -0.235936
0.097183 -0.168506 -0.0761548
0.0988107 -0.16594 -0.0908866
0.171045 -0.39876 0.222233
0.154544 -0.333528 0.119438
0.161157 -0.357034 0.151602
0.160499 -0.361533 0.156318
0.161688 -0.364866 0.161031
0.145199 -0.303746 0.0727151
0.148659 -0.325139 0.100681
0.140745 -0.29452 0.050786
0.137512 -0.272867 0.0085681
0.0990861 -0.153605 -0.173671
0.104844 -0.163346 -0.162131
0.105516 -0.164885 -0.160403
-0.23996 0.435047 0.102965
-0.219241 0.371333 0.175587
-0.211204 0.356104 0.189018
-0.239259 0.454207 0.00687087
-0.234475 0.46623 -0.0741929
-0.220536 0.447477 -0.114108
-0.142077 0.216337 0.189988
-0.126659 0.19652 0.183152
-0.114403 0.16692 0.183343
-0.115069 0.165178 0.18363
-0.085612 0.114973 0.174962
-0.169895 0.375914 -0.207623
-0.0768287 0.0913091 0.173037
-0.0398071 0.00394535 0.238909
-0.0375935 0.00333559 0.240183
-0.0388232 -0.00133847 0.242954
-0.0344167 -0.0129769 0.247123
-0.13156 0.315736 -0.251474
-0.0423839 0.0458416 0.114056
-0.0298235 0.00978111 0.155929
-0.0112684 -0.0495183 0.23947
-0.128204 0.303077 -0.2525
-0.00281547 -0.0652793 0.251526
-0.0200504 -0.0172376 0.177583
-0.019198 -0.0194831 0.179381
-0.0114025 -0.0288326 0.19221
-0.0111687 -0.0322799 0.193521
-0.0111048 -0.0453955 0.199947
-0.00103619 -0.0714076 0.235114
0.000396367 -0.073343 0.241538
-0.107597 0.273926 -0.266166
-0.027938 0.0330751 0.0515002
-0.0162077 -0.00258086 0.0803845
-0.102522 0.256346 -0.277524
-0.00374808 -0.0334081 0.107265
0.0153288 -0.0710896 0.118656
0.024892 -0.0917694 0.138091
0.0348243 -0.115131 0.131517
-0.0625142 0.18466 -0.287739
0.0389282 -0.116507 0.129165
-0.0596005 0.177589 -0.289776
0.0460551 -0.122897 0.0947099
0.062939 -0.175431 0.150875
-0.0326365 0.132929 -0.289798
0.0629997 -0.17694 0.130593
0.0853591 -0.235563 0.206692
0.055076 -0.129893 0.0621861
0.0821175 -0.2156 0.177273
-0.0291242 0.118751 -0.287405
0.0909083 -0.242423 0.206406
0.0883957 -0.230969 0.190568
0.0679308 -0.169213 0.101064
0.0944387 -0.246547 0.204734
0.0933972 -0.252953 0.207489
0.0878578 -0.233772 0.174478
0.0853237 -0.223565 0.154883
0.104246 -0.273963 0.201412
0.00294117 0.0561694 -0.279099
0.00688891 0.0466766 -0.277003
0.0155255 0.0276377 -0.271884
0.0180804 0.02636 -0.271004
0.0228481 0.0179962 -0.268295
0.0935131 -0.203198 0.0334871
0.102038 -0.231082 0.0656151
0.110406 -0.23479 0.0514834
0.0386728 -0.0231293 -0.250056
0.108517 -0.24007 0.0467626
0.0507876 -0.0511559 -0.236208
0.156501 -0.377228 0.213295
0.120838 -0.254288 0.0363677
0.063641 -0.0743019 -0.221984
0.126208 -0.257419 0.00826963
0.150723 -0.333022 0.114616
0.159586 -0.364783 0.159535
0.163144 -0.372516 0.171249
0.0723992 -0.0988841 -0.210881
0.127006 -0.25651 0.00650955
0.143836 -0.322263 0.092223
0.112428 -0.214108 -0.0637923
0.136191 -0.285276 0.0273915
0.0872736 -0.132068 -0.192994
0.0916691 -0.144425 -0.183482
0.10676 -0.180878 -0.145294
0.1102 -0.197511 -0.12407
0.116496 -0.207728 -0.107848
0.118339 -0.222105 -0.0894457
0.120365 -0.222329 -0.0875627
-0.245919 0.441953 0.0940563
-0.242735 0.43549 0.101391
-0.235409 0.41267 0.125502
-0.199634 0.323934 0.198258
-0.238453 0.449531 -0.00572933
-0.174911 0.272482 0.203454
-0.170289 0.265022 0.204046
-0.172011 0.264086 0.205238
-0.229333 0.462831 -0.0992509
-0.153456 0.231779 0.199054
-0.227209 0.453292 -0.111522
-0.206305 0.426592 -0.126077
-0.202475 0.420599 -0.137517
-0.201635 0.413133 -0.159404
-0.115033 0.161987 0.184086
-0.185244 0.395974 -0.183432
-0.0524164 0.0312903 0.205644
-0.0472551 0.00715813 0.233501
-0.0287773 -0.0203759 0.242167
-0.0449878 0.0483598 0.108217
-0.13117 0.30261 -0.252712
-0.0518093 0.0530425 0.0949083
-0.0321391 0.0117942 0.152297
-0.00547064 -0.0746594 0.252426
-0.00856506 -0.0572862 0.213521
-0.00902362 -0.0555073 0.211294
-0.108488 0.265054 -0.273557
0.000257766 -0.0502761 0.107679
0.030441 -0.11257 0.133841
-0.0655609 0.183148 -0.288349
0.0402743 -0.125711 0.0956143
0.042479 -0.121292 0.0813252
0.0701173 -0.204204 0.173565
0.0612756 -0.177859 0.137543
0.0751867 -0.207015 0.17569
0.0770745 -0.209294 0.176999
0.0869999 -0.248796 0.212882
0.0584492 -0.146617 0.0680189
0.0858229 -0.228824 0.160994
0.085945 -0.230993 0.151994
-0.0106644 0.077439 -0.283681
0.123165 -0.309288 0.200999
0.120586 -0.312113 0.203853
0.126924 -0.314972 0.201346
0.0247291 0.00560538 -0.265156
0.137604 -0.339894 0.203368
0.085444 -0.181523 -0.0373704
0.0422151 -0.0377509 -0.243995
0.0497388 -0.0587266 -0.234132
0.0527888 -0.0637784 -0.231152
0.157961 -0.38777 0.21887
0.0570299 -0.0692229 -0.227172
0.0601278 -0.0787366 -0.221455
0.163587 -0.401005 0.225156
0.166665 -0.410133 0.228188
0.16746 -0.408972 0.227261
0.163805 -0.385965 0.187434
0.13821 -0.307562 0.07117
0.137304 -0.309068 0.0722702
0.143038 -0.329622 0.10134
0.120406 -0.238126 -0.0293471
0.13663 -0.299754 0.0551731
0.111137 -0.21755 -0.0664791
0.132937 -0.293854 0.0384725
0.0799864 -0.120989 -0.204356
0.113557 -0.223812 -0.0643173
0.0890524 -0.143536 -0.184879
0.113485 -0.226698 -0.0642152
0.124636 -0.257992 -0.02572
0.126387 -0.25963 -0.0220077
0.113316 -0.231696 -0.0628901
0.121702 -0.242873 -0.0513418
0.114786 -0.217147 -0.0982062
0.117844 -0.221765 -0.090261
-0.247174 0.432247 0.102917
-0.234094 0.401799 0.136605
-0.221927 0.361291 0.18452
-0.201444 0.318213 0.200932
-0.2442 0.453973 -0.0258572
-0.175542 0.266708 0.205991
-0.227917 0.44763 -0.11398
-0.224084 0.441265 -0.115696
-0.217509 0.432285 -0.117057
-0.144384 0.210547 0.189017
-0.107401 0.134896 0.181592
-0.187034 0.393558 -0.187596
-0.0701195 0.0650758 0.174534
-0.0628231 0.0437927 0.187234
-0.0579576 0.034959 0.198266
-0.159374 0.344764 -0.233776
-0.145963 0.320612 -0.247815
-0.0535516 0.0512072 0.0937755
-0.0461154 0.0317824 0.119367
-0.036681 0.0139526 0.146032
-0.0384253 0.014333 0.143875
-0.12935 0.298432 -0.253033
-0.0330143 0.00250796 0.157091
-0.0275362 -0.0103196 0.167273
-0.124423 0.289524 -0.255199
-0.0218754 -0.0348065 0.180219
-0.00783845 -0.0713169 0.228534
-0.00610285 -0.0784546 0.239103
-0.120553 0.280377 -0.26034
-0.113542 0.275745 -0.264176
-0.0389998 0.0335655 0.0610171
-0.0272113 0.0214262 0.0564558
-0.110764 0.256156 -0.278029
-0.10344 0.24966 -0.277551
-0.0166187 -0.0200476 0.0966115
-0.0948404 0.240776 -0.272724
-0.0970856 0.235771 -0.272869
-0.0936574 0.234535 -0.272296
0.00364048 -0.0646791 0.107482
0.012562 -0.0841027 0.12464
-0.0720468 0.187818 -0.287522
0.0266449 -0.114001 0.123568
0.0295618 -0.116654 0.112948
0.0641594 -0.196158 0.17457
0.0648804 -0.200494 0.174944
0.0751747 -0.233092 0.213878
0.0593038 -0.193865 0.141346
0.0849338 -0.235168 0.170577
0.0852946 -0.240017 0.179899
-0.0173462 0.0855441 -0.284984
-0.00871696 0.0678708 -0.283363
0.111012 -0.298061 0.204004
0.113643 -0.307029 0.206002
0.079589 -0.191529 0.0337186
0.125398 -0.327019 0.206673
0.0881168 -0.212672 0.038596
0.132092 -0.343179 0.20719
0.0282834 -0.00978317 -0.258552
0.0853705 -0.18555 -0.0188966
0.151071 -0.380021 0.215808
0.0472183 -0.0612803 -0.234152
0.0874191 -0.185986 -0.0633208
0.1644 -0.411415 0.223963
0.151207 -0.363403 0.15234
0.153179 -0.374109 0.166043
0.159685 -0.387002 0.185558
0.161885 -0.399226 0.202912
0.118524 -0.259035 -0.00282715
0.133178 -0.301996 0.0540426
0.11635 -0.249071 -0.0263427
0.116969 -0.253288 -0.0204557
0.128821 -0.289178 0.0258227
0.121384 -0.260399 -0.0251483
0.0929831 -0.162696 -0.169746
-0.261673 0.463964 0.0540384
-0.259013 0.468198 0.0382617
-0.241973 0.404816 0.130034
-0.200412 0.305811 0.204319
-0.245666 0.446691 -0.00131996
-0.244847 0.454142 -0.026846
-0.180047 0.268115 0.207549
-0.165805 0.231029 0.204991
-0.21583 0.424302 -0.129451
-0.1421 0.192921 0.186452
-0.204792 0.408796 -0.168563
-0.11618 0.144207 0.184009
-0.109505 0.129879 0.181403
-0.188054 0.391637 -0.190601
-0.0902128 0.101089 0.175273
-0.0900943 0.093135 0.174371
-0.0848794 0.0855268 0.17286
-0.0827848 0.0837378 0.172546
-0.140466 0.302744 -0.253573
-0.0167774 -0.0649756 0.249916
-0.134176 0.298948 -0.253342
-0.0462197 0.0244622 0.125715
-0.0449405 0.0213477 0.130231
-0.0486486 0.0499307 0.0654398
-0.0111575 -0.0682164 0.222675
-0.12337 0.277283 -0.262416
-0.0429663 0.0336313 0.0646155
-0.0394675 0.0305135 0.0625583
-0.0991967 0.23231 -0.273493
-0.00356556 -0.0562755 0.101993
-0.0876922 0.215075 -0.279792
-0.0885322 0.211482 -0.281618
-0.0864812 0.208114 -0.283185
0.0178555 -0.10036 0.134655
-0.0840874 0.200857 -0.285937
0.0252872 -0.118745 0.104452
0.0745193 -0.239887 0.220214
-0.042608 0.123963 -0.290365
0.0762822 -0.245876 0.200673
0.0559835 -0.158839 0.079607
0.0633302 -0.201124 0.139967
0.0503278 -0.15109 0.0698824
0.050944 -0.15224 0.0707825
0.0662189 -0.204761 0.136151
0.0735977 -0.222385 0.146596
0.0825737 -0.239116 0.171008
0.0822165 -0.24488 0.183479
0.109519 -0.305432 0.208112
0.0964916 -0.228304 0.0587534
0.0814438 -0.188278 -0.00467102
0.135521 -0.358531 0.211029
0.0807664 -0.182421 -0.03754
0.140033 -0.361799 0.210279
0.0339091 -0.0323617 -0.247558
0.142301 -0.369019 0.212355
0.0831104 -0.182306 -0.0573257
0.0439663 -0.0623269 -0.235013
0.0526004 -0.0786505 -0.224798
0.0927945 -0.199337 -0.0709715
0.162155 -0.406353 0.213667
0.117064 -0.262464 0.0113137
0.159623 -0.402312 0.204826
0.115335 -0.26015 -0.00859019
0.130025 -0.299512 0.0449938
0.129455 -0.303561 0.0515572
0.103868 -0.223932 -0.0724286
0.124779 -0.277495 0.00316549
0.126467 -0.280483 0.00924515
0.10082 -0.19188 -0.13841
0.10257 -0.208466 -0.117008
0.105334 -0.215368 -0.107078
0.11111 -0.225917 -0.090062
-0.264165 0.451658 0.0761296
-0.25486 0.436232 0.0968316
-0.256822 0.434199 0.098187
-0.239136 0.392533 0.143366
-0.220539 0.340807 0.199612
-0.258775 0.461679 0.0197074
-0.24811 0.452349 -0.0250082
-0.249044 0.449834 -0.0183022
-0.191321 0.279576 0.208864
-0.189738 0.275618 0.209356
-0.188819 0.270352 0.210763
-0.247154 0.459692 -0.0741469
-0.240939 0.457236 -0.100109
-0.215179 0.419281 -0.138742
-0.139648 0.179183 0.185996
-0.214835 0.414585 -0.15112
-0.21304 0.414888 -0.150522
-0.107953 0.121591 0.178552
-0.189671 0.383932 -0.200526
-0.0936323 0.100119 0.175589
-0.184255 0.373333 -0.211586
-0.0888406 0.0863269 0.173274
-0.174939 0.357942 -0.225115
-0.0517244 -0.0024205 0.239567
-0.163077 0.337475 -0.236068
-0.0438035 -0.0194362 0.248198
-0.153272 0.319497 -0.245966
-0.145672 0.311248 -0.252732
-0.0246253 -0.0597561 0.245715
-0.139779 0.296878 -0.254461
-0.0563292 0.0472581 0.0921766
-0.0499707 0.0229325 0.122236
-0.0400212 -0.00183383 0.152755
-0.129808 0.282123 -0.259201
-0.0133507 -0.0876833 0.252839
-0.0130531 -0.0719194 0.225107
-0.0391586 0.0162999 0.0677273
-0.035714 0.00696125 0.068435
-0.030238 -0.00288158 0.0736293
-0.108217 0.241771 -0.277118
-0.0977914 0.221806 -0.276825
0.028156 -0.123361 0.101399
-0.0601065 0.152725 -0.297416
0.0561142 -0.196287 0.174958
0.059074 -0.199122 0.176961
-0.0528251 0.138915 -0.299211
0.0508597 -0.176525 0.12017
0.0536426 -0.17389 0.112381
-0.0424633 0.11552 -0.289846
0.044587 -0.148877 0.0697496
-0.0355049 0.103203 -0.28911
0.0791767 -0.248474 0.194059
-0.0259931 0.0830718 -0.287127
-0.0229758 0.0789987 -0.286449
0.0729844 -0.191423 0.014561
0.0738467 -0.189359 -0.00260525
0.0895766 -0.225604 0.0493238
0.0922154 -0.238295 0.0495621
0.0330842 -0.0443031 -0.244106
0.0477669 -0.0724646 -0.229538
0.0532861 -0.0931957 -0.218671
0.0602806 -0.103145 -0.213203
0.142916 -0.358774 0.141216
0.146314 -0.367158 0.153211
0.134588 -0.331882 0.0970175
0.113295 -0.260737 -0.0116403
0.113104 -0.250571 -0.0462264
0.0940228 -0.19607 -0.140543
-0.266274 0.454701 0.0700065
-0.266026 0.465064 0.0436796
-0.245259 0.392555 0.140947
-0.233676 0.367614 0.171858
-0.232224 0.354619 0.186662
-0.225179 0.341176 0.200021
-0.257234 0.45142 0.0093356
-0.205416 0.295761 0.210689
-0.250009 0.4454 -0.000121502
-0.252163 0.449144 -0.0180157
-0.242699 0.45718 -0.0971329
-0.242154 0.454494 -0.104215
-0.148673 0.190675 0.188231
-0.217352 0.41649 -0.146084
-0.117263 0.128181 0.184056
-0.11881 0.123949 0.184378
-0.197652 0.389989 -0.195001
-0.19284 0.38 -0.205252
-0.081713 0.0701348 0.17169
-0.0644618 0.0263618 0.203979
-0.0550441 -0.00170306 0.238036
-0.0485741 -0.0210562 0.24819
-0.155252 0.315742 -0.249245
-0.154676 0.314759 -0.25035
-0.0568466 0.0390871 0.0966627
-0.0504879 0.0188408 0.125535
-0.0478986 0.0112518 0.136068
-0.0428289 0.00428979 0.146848
-0.0314879 -0.0324535 0.167795
-0.0200438 -0.0683189 0.21459
-0.0222312 -0.0597342 0.200915
-0.124458 0.265611 -0.271478
-0.123096 0.262297 -0.273969
-0.0386646 0.00637607 0.0703736
-0.114138 0.246816 -0.279525
-0.00437257 -0.0683593 0.101939
0.00661295 -0.0953971 0.125437
0.016575 -0.10933 0.12498
0.0157366 -0.110304 0.120642
0.0138651 -0.110491 0.111684
0.0221957 -0.125162 0.0973369
0.0274368 -0.132372 0.0908714
0.0527345 -0.196409 0.17429
0.051132 -0.18538 0.148923
0.0502014 -0.18303 0.150785
-0.055024 0.134455 -0.298333
0.0450758 -0.174589 0.111751
0.059329 -0.209304 0.16471
0.0462585 -0.172612 0.104404
0.0725766 -0.244008 0.202051
0.0646077 -0.213833 0.135649
0.0791698 -0.248665 0.180713
0.0797109 -0.2443 0.169875
0.0851686 -0.277115 0.218142
0.080414 -0.248323 0.138993
0.102664 -0.306745 0.213676
-0.00983625 0.0421208 -0.281015
0.0719775 -0.194004 0.0315731
0.0860092 -0.225241 0.046201
0.124379 -0.346318 0.212211
0.0162279 -0.0150345 -0.259829
0.0747337 -0.184866 -0.0383732
0.0311527 -0.0416288 -0.245256
0.137022 -0.377002 0.217819
0.0836925 -0.191208 -0.0664435
0.105463 -0.266537 0.0343892
0.150177 -0.408076 0.231929
0.106281 -0.268453 0.0299188
0.157043 -0.41258 0.233952
0.0464912 -0.0869343 -0.224186
0.0573744 -0.103139 -0.214117
0.054456 -0.106087 -0.214402
0.141992 -0.367518 0.150551
0.141641 -0.369172 0.152189
0.129379 -0.328354 0.0885767
0.070925 -0.136922 -0.197379
0.10774 -0.253882 -0.0319805
0.120682 -0.28747 0.0143937
0.106263 -0.246573 -0.0530468
0.0768014 -0.151717 -0.184845
0.108098 -0.241249 -0.0614118
0.107715 -0.247009 -0.054947
0.108859 -0.251675 -0.0481025
0.084262 -0.16706 -0.17143
0.0892051 -0.183667 -0.155835
-0.268714 0.446722 0.0799348
-0.269754 0.458458 0.0603544
-0.244552 0.380047 0.153975
-0.222633 0.326873 0.206511
-0.215844 0.314298 0.20876
-0.253944 0.447267 -0.0118499
-0.199734 0.276282 0.214018
-0.193117 0.26265 0.215428
-0.171347 0.222184 0.206091
-0.162253 0.2129 0.197545
-0.153731 0.196049 0.189993
-0.219572 0.411933 -0.156991
-0.136661 0.161326 0.186119
-0.1951 0.376093 -0.209312
-0.0783002 0.0505427 0.176107
-0.0723487 0.0405244 0.186123
-0.05897 -0.00383659 0.238243
-0.0347895 -0.0512713 0.244622
-0.0277537 -0.0713566 0.252549
-0.0557173 0.0200377 0.115927
-0.0455554 -0.0027429 0.147987
-0.136845 0.285411 -0.258157
-0.135727 0.280949 -0.260547
-0.134868 0.277105 -0.262916
-0.0380846 -0.02667 0.159417
-0.0159128 -0.0871737 0.240013
-0.0494823 0.0126753 0.0869427
-0.0311702 -0.0503363 0.177086
-0.0344974 -0.0137534 0.0828114
-0.0235077 -0.0306218 0.099791
-0.110585 0.23703 -0.276955
0.00922814 -0.105078 0.12367
0.0106634 -0.109755 0.10287
-0.0783294 0.170948 -0.292813
0.0266259 -0.13272 0.0906881
0.0573105 -0.231401 0.220475
0.0471643 -0.193798 0.166015
0.0647838 -0.242835 0.227464
0.0500811 -0.185447 0.142659
0.0423748 -0.176297 0.115055
0.0453832 -0.179654 0.124154
0.0571162 -0.210297 0.16261
0.0489756 -0.196387 0.133064
0.0732432 -0.263319 0.226441
0.0488335 -0.16239 0.0798741
0.0603112 -0.214886 0.143732
0.0616531 -0.21672 0.147554
-0.039035 0.0959368 -0.290074
-0.0364805 0.091872 -0.289563
0.0822401 -0.275698 0.220459
0.0769704 -0.252067 0.17831
0.0754596 -0.256165 0.18722
0.091672 -0.289901 0.216179
0.0754709 -0.240405 0.13218
0.0779308 -0.254326 0.154151
0.0794377 -0.252497 0.14817
-0.0166619 0.0501065 -0.284102
0.0684247 -0.202232 0.0320776
0.110697 -0.332833 0.217602
0.0659208 -0.189469 -0.0114809
0.0682201 -0.191071 -0.000406711
0.123522 -0.353041 0.214778
0.0112145 -0.0160883 -0.261132
0.0703419 -0.188097 -0.0201805
0.0698783 -0.188266 -0.0275553
0.0366018 -0.0627183 -0.237748
0.145857 -0.402799 0.229377
0.0487539 -0.0932255 -0.220692
0.1541 -0.418559 0.221936
0.141209 -0.381203 0.165656
0.149458 -0.405757 0.199829
0.12821 -0.328802 0.0882171
0.12896 -0.334673 0.0962323
0.123925 -0.31567 0.0657814
0.120451 -0.307423 0.047339
0.107624 -0.262521 -0.017546
0.120957 -0.29985 0.0353711
0.0684039 -0.13916 -0.197173
0.113982 -0.281656 -0.00161129
0.113755 -0.280973 -0.00292497
0.108343 -0.265662 -0.0289791
0.0822327 -0.167994 -0.171943
0.102756 -0.241515 -0.0728825
0.101458 -0.230828 -0.0908213
0.0900696 -0.202043 -0.138451
-0.268788 0.443301 0.0841206
-0.267576 0.440878 0.0875174
-0.267252 0.437228 0.0916884
-0.265011 0.429106 0.100692
-0.249381 0.390743 0.141406
-0.247128 0.385188 0.14781
-0.237919 0.355227 0.183042
-0.22362 0.323065 0.208255
-0.258791 0.452678 -0.040598
-0.258384 0.453476 -0.0509646
-0.178006 0.226337 0.210068
-0.230059 0.419896 -0.138756
-0.149785 0.177123 0.1889
-0.224984 0.415419 -0.149631
-0.141459 0.160992 0.187294
-0.218504 0.407703 -0.168566
-0.131362 0.137799 0.184655
-0.121419 0.122277 0.185257
-0.207215 0.389977 -0.197237
-0.0889294 0.0667476 0.1712
-0.07309 0.0218802 0.205274
-0.069467 0.0169077 0.212067
-0.0696658 0.0158217 0.213207
-0.0621043 -0.00476946 0.237714
-0.0616342 -0.00719774 0.23979
-0.0488302 -0.0337745 0.248672
-0.0232957 -0.0786845 0.222677
-0.0331111 -0.0464865 0.172898
-0.129105 0.262231 -0.273604
-0.109259 0.223493 -0.278425
-0.0231012 -0.0519396 0.0968767
-0.103068 0.208828 -0.284211
-0.104244 0.21138 -0.283405
-0.0981393 0.20915 -0.283293
-0.00598563 -0.0802563 0.10803
-0.0793325 0.172141 -0.292318
0.0195542 -0.155836 0.160253
-0.076165 0.162657 -0.295611
-0.0702877 0.14874 -0.297601
0.0483467 -0.201756 0.178204
0.0479385 -0.21928 0.197796
0.0247047 -0.133463 0.0724652
0.0562372 -0.229779 0.198815
-0.0530592 0.110895 -0.292137
0.0464929 -0.19668 0.132411
0.0381097 -0.160625 0.0775508
-0.0425359 0.0949667 -0.290898
0.0747676 -0.255166 0.1969
-0.0385767 0.0854402 -0.290239
0.0734793 -0.260017 0.183086
-0.0366923 0.0796358 -0.289864
-0.0291295 0.0671472 -0.288036
0.0779459 -0.2554 0.147296
0.0788765 -0.25365 0.143326
-0.0203434 0.0496076 -0.28503
-0.0164465 0.035391 -0.281716
0.0663713 -0.197421 0.0265572
0.0645336 -0.197041 0.0172705
0.0633942 -0.191011 -0.0075228
0.0195219 -0.0372882 -0.248634
0.0844598 -0.246659 0.0392649
0.146211 -0.416031 0.239516
0.150527 -0.425851 0.249755
0.0395092 -0.0837405 -0.228886
0.0499892 -0.104243 -0.216516
0.148878 -0.416153 0.212539
0.0498378 -0.109668 -0.215263
0.118067 -0.302806 0.0372632
0.117579 -0.312139 0.0518989
0.0581841 -0.125296 -0.210345
0.104614 -0.264567 -0.0180866
0.071196 -0.150133 -0.188398
0.107184 -0.275264 -0.017741
0.100866 -0.254406 -0.0514017
0.0997407 -0.232691 -0.0894862
0.0878236 -0.207324 -0.134583
-0.26905 0.432106 0.0964825
-0.239345 0.348513 0.18951
-0.194959 0.257848 0.217618
-0.259833 0.451734 -0.0598321
-0.163363 0.197075 0.193965
-0.162061 0.19459 0.193044
-0.23473 0.42494 -0.129189
-0.220754 0.410505 -0.160131
-0.224135 0.407081 -0.169757
-0.224308 0.405568 -0.1742
-0.13401 0.142284 0.185305
-0.210945 0.388666 -0.19934
-0.202607 0.384318 -0.202211
-0.107398 0.0886465 0.175816
-0.194802 0.363017 -0.219785
-0.0806394 0.0363998 0.186879
-0.066337 -0.000449508 0.232125
-0.153334 0.290754 -0.258396
-0.029192 -0.0865364 0.261063
-0.0468784 -0.0170753 0.149794
-0.0449034 -0.0201051 0.151836
-0.0586381 0.0182227 0.0949776
-0.0222482 -0.106568 0.263145
-0.0191873 -0.101371 0.248691
-0.0198435 -0.103747 0.258402
-0.0279356 -0.0697183 0.200522
-0.0263779 -0.0752538 0.213283
-0.0421758 -0.0140322 0.0839985
-0.120106 0.237876 -0.280423
-0.113508 0.218576 -0.283061
-0.111327 0.211668 -0.285603
-0.0135818 -0.0682372 0.0959912
-0.0114666 -0.0795088 0.103474
0.0207475 -0.16533 0.184577
0.00350973 -0.107753 0.0945629
-0.0829499 0.169256 -0.293219
-0.0791903 0.155556 -0.296657
0.0468434 -0.222944 0.211751
0.0504172 -0.224314 0.212692
0.0545041 -0.23944 0.228069
0.0422737 -0.199047 0.167269
-0.0633213 0.13099 -0.299346
0.0509188 -0.20846 0.159895
0.0614055 -0.244935 0.203631
0.037061 -0.170951 0.0939376
0.0736855 -0.284141 0.230693
0.0786092 -0.287235 0.227521
0.0723827 -0.261925 0.177191
0.056945 -0.215661 0.114399
-0.0318508 0.0658672 -0.288596
0.0612017 -0.226556 0.116451
0.073867 -0.262055 0.151547
0.0920714 -0.316534 0.224905
0.0749226 -0.253331 0.131413
-0.0155068 0.0322803 -0.280875
0.061611 -0.19788 0.0117175
0.0115629 -0.0313549 -0.253327
0.0203128 -0.0444694 -0.247402
0.0213228 -0.056132 -0.245575
0.0686297 -0.194785 -0.0479088
0.137879 -0.405107 0.232304
0.143813 -0.421014 0.246496
0.130757 -0.364276 0.138601
0.145292 -0.408802 0.200201
0.145285 -0.41171 0.203631
0.123928 -0.345137 0.105444
0.0824389 -0.218853 -0.07713
0.103094 -0.275258 0.00181251
0.10327 -0.267385 -0.0149791
0.0998269 -0.270241 -0.0146957
0.0950099 -0.242683 -0.0620616
0.0966969 -0.248213 -0.0574408
0.0954657 -0.234599 -0.0900276
-0.27987 0.453299 0.0628764
-0.282833 0.452625 0.0621864
-0.27677 0.458446 0.0346136
-0.273795 0.454463 0.0228832
-0.23225 0.315115 0.212882
-0.201164 0.255906 0.220542
-0.255295 0.447756 -0.0895275
-0.164153 0.190307 0.193455
-0.232389 0.413073 -0.156867
-0.102687 0.0811798 0.173851
-0.185538 0.341589 -0.230972
-0.071989 -0.00012896 0.229581
-0.0535528 -0.00282097 0.13943
-0.0578228 -0.00272386 0.132628
-0.149749 0.280163 -0.263004
-0.0190077 -0.0994946 0.2481
-0.142827 0.271519 -0.267604
-0.0222707 -0.115771 0.262358
-0.0543347 -0.00519771 0.100685
-0.0303172 -0.0694577 0.191772
-0.0206781 -0.10951 0.246614
-0.138637 0.264211 -0.272297
-0.130598 0.24763 -0.2816
-0.0376499 -0.0346831 0.0984667
-0.11888 0.233195 -0.279808
-0.0311167 -0.0426909 0.100521
-0.11553 0.219345 -0.283606
-0.0250596 -0.0558272 0.0951496
-0.112391 0.210722 -0.286425
0.0229984 -0.187685 0.203929
0.0181904 -0.166647 0.166667
0.00363343 -0.116316 0.0862515
0.0225618 -0.179575 0.177389
0.0159808 -0.133489 0.0884767
0.0455704 -0.22576 0.215907
-0.0711454 0.133322 -0.299699
0.0293641 -0.17351 0.102284
0.0342384 -0.177318 0.113092
0.037774 -0.186804 0.130508
0.0327952 -0.172599 0.100115
0.0681112 -0.269164 0.186353
0.0854079 -0.312667 0.229112
0.100313 -0.336748 0.225455
0.0616248 -0.207416 0.0281939
0.0588757 -0.200357 0.0124978
0.0593156 -0.200752 0.0143545
0.100009 -0.325733 0.174853
0.0997694 -0.330673 0.168129
0.103276 -0.334259 0.171968
0.103099 -0.337918 0.174048
0.0902962 -0.267468 0.0433777
0.133897 -0.405551 0.233596
0.0690943 -0.205452 -0.0546855
0.142303 -0.422497 0.249449
0.148689 -0.44371 0.261379
0.0364937 -0.0908476 -0.227858
0.150515 -0.441688 0.260232
0.0407836 -0.101426 -0.221724
0.146067 -0.431355 0.231555
0.147011 -0.435586 0.238408
0.0986507 -0.283727 0.0297165
0.125708 -0.362053 0.131257
0.132489 -0.380673 0.158791
0.0451324 -0.115823 -0.215918
0.124047 -0.353458 0.116608
0.115614 -0.327505 0.0738484
0.0988209 -0.2736 -0.0105186
0.100885 -0.277763 0.00202437
0.0994749 -0.284834 0.0150816
0.0835812 -0.226636 -0.0796848
0.0953109 -0.247402 -0.0567238
0.100584 -0.263476 -0.0398491
0.0657335 -0.161407 -0.18544
0.09617 -0.262591 -0.0456212
0.0861059 -0.223711 -0.112007
0.0906667 -0.232053 -0.0974154
-0.27413 0.424641 0.103066
-0.25982 0.387672 0.142916
-0.253222 0.369682 0.162561
-0.252481 0.3658 0.166956
-0.235815 0.314658 0.213499
-0.273459 0.444696 -0.00445017
-0.219797 0.283921 0.219964
-0.267581 0.446786 -0.0565069
-0.245122 0.42361 -0.131125
-0.22698 0.400215 -0.185762
-0.127608 0.117996 0.184744
-0.195168 0.356079 -0.224094
-0.0900609 0.0408701 0.178863
-0.0869704 0.0347055 0.186067
-0.0697523 -0.0169764 0.243198
-0.0463911 -0.0658327 0.249365
-0.0582589 -0.00494904 0.133185
-0.0591578 0.00201179 0.106242
-0.148478 0.272604 -0.267295
-0.0590762 0.000491797 0.106581
-0.0291085 -0.0861346 0.218471
-0.0572001 -0.00148013 0.104012
-0.0415259 -0.0519474 0.167173
-0.0295936 -0.0857175 0.215986
-0.139038 0.254629 -0.278655
-0.0478753 -0.0250138 0.0933708
-0.0313325 -0.0579654 0.0963842
-0.113962 0.207523 -0.288198
-0.110479 0.204809 -0.287703
0.0168168 -0.182165 0.21448
0.0171104 -0.172676 0.202622
0.0191466 -0.185378 0.2125
0.0219965 -0.189467 0.208616
-0.00239009 -0.107037 0.0888685
-0.00147132 -0.111754 0.0842776
0.0257833 -0.187249 0.190071
0.0258626 -0.191172 0.194656
0.0259238 -0.19403 0.197104
0.0020098 -0.115806 0.0851967
0.00896114 -0.129345 0.0869217
0.0118939 -0.130443 0.0883551
0.0383629 -0.215418 0.204184
0.0394832 -0.206132 0.173094
0.0497578 -0.241607 0.203192
0.0640316 -0.279237 0.236215
-0.0562554 0.0991292 -0.293629
0.072051 -0.292988 0.235409
0.0687485 -0.268154 0.172031
0.063619 -0.246783 0.121902
0.0874035 -0.317963 0.18342
0.0898087 -0.320025 0.186658
0.0602435 -0.206113 0.0254606
0.0596035 -0.206539 0.0249113
0.0560394 -0.19943 0.00479169
0.0694728 -0.235759 0.0361093
0.100948 -0.343533 0.175229
0.0616672 -0.201699 -0.0391245
0.0864427 -0.274308 0.0437148
0.134531 -0.422775 0.253545
0.143712 -0.435883 0.269626
0.0234244 -0.0748016 -0.240311
0.0411602 -0.109004 -0.219213
0.13632 -0.403598 0.187782
0.118983 -0.352149 0.110212
0.0456244 -0.122713 -0.214631
0.112064 -0.320663 0.0596217
0.0470121 -0.128575 -0.21308
0.0972608 -0.286647 0.0132848
0.106642 -0.31436 0.0443242
0.108636 -0.314567 0.0465564
0.0965667 -0.271702 -0.0160991
0.0920836 -0.256912 -0.0414626
0.106086 -0.296077 0.0128349
0.102415 -0.288818 -0.00407389
0.0622307 -0.163082 -0.186539
0.0944167 -0.261012 -0.0492251
0.0697943 -0.174329 -0.175549
0.0912862 -0.249012 -0.0698031
0.0668578 -0.176616 -0.176082
0.08334 -0.224706 -0.113395
0.0867919 -0.232983 -0.0991586
0.0722 -0.196678 -0.161357
0.08133 -0.213508 -0.135463
-0.282822 0.435471 0.0876918
-0.290582 0.452321 0.0563806
-0.261738 0.372616 0.157827
-0.249924 0.346258 0.187333
-0.284973 0.453404 0.0344672
-0.270597 0.446043 -0.0492606
-0.26674 0.444861 -0.0657853
-0.185025 0.209962 0.212279
-0.218162 0.385574 -0.202692
-0.0899833 0.0237646 0.198393
-0.0869757 0.0176216 0.206593
-0.0852173 0.0127844 0.21244
-0.0726238 -0.0123455 0.239595
-0.0356706 -0.0949983 0.266589
-0.0590998 -0.0122767 0.135175
-0.15537 0.275228 -0.265622
-0.0289233 -0.116194 0.270279
-0.0570917 -0.0299136 0.143074
-0.0296408 -0.0922017 0.221525
-0.149176 0.263793 -0.273093
-0.12499 0.232137 -0.282617
-0.0225129 -0.0733688 0.0950543
-0.0150579 -0.095962 0.108055
0.00104587 -0.145228 0.175782
0.0164506 -0.193949 0.225321
-0.00986403 -0.108246 0.0827314
0.0231883 -0.19553 0.208781
0.0229525 -0.19779 0.211127
0.00834278 -0.152185 0.145935
0.0273738 -0.19697 0.194007
0.000261286 -0.120158 0.0831741
0.028404 -0.194789 0.183547
0.0349645 -0.225758 0.223558
0.0353126 -0.227663 0.225323
0.037978 -0.224956 0.195508
0.0119775 -0.141319 0.0770447
0.0324727 -0.191304 0.132646
0.0180478 -0.156578 0.076504
0.0262704 -0.172473 0.0983148
0.0662588 -0.288243 0.237791
0.0652851 -0.286786 0.237895
-0.0534598 0.08289 -0.293878
0.0630744 -0.272461 0.197011
-0.0508989 0.0771091 -0.293276
-0.0311415 0.0443411 -0.28681
-0.0306734 0.037097 -0.285494
-0.0264103 0.0316293 -0.283537
0.0692894 -0.267027 0.130914
0.0948886 -0.34655 0.231628
0.0887421 -0.322059 0.168992
0.0634103 -0.228195 0.0356198
0.105979 -0.365976 0.228395
0.0540937 -0.198601 -0.0170499
0.0906444 -0.325956 0.165732
0.0962983 -0.341096 0.184696
0.0561045 -0.19773 -0.022116
0.0549783 -0.201079 -0.0231219
0.0683182 -0.241714 0.0348217
0.0684398 -0.24414 0.0346775
0.0995269 -0.336891 0.164329
0.0596446 -0.203405 -0.0366799
0.130373 -0.421873 0.253954
0.1341 -0.438096 0.2748
0.138471 -0.436094 0.271773
0.132607 -0.415668 0.243125
0.14246 -0.449512 0.265187
0.0271215 -0.0931101 -0.232362
0.033535 -0.103952 -0.2248
0.0378114 -0.112951 -0.219788
0.135893 -0.422279 0.209028
0.0801559 -0.239009 -0.0575304
0.0437874 -0.131153 -0.213408
0.0806192 -0.234472 -0.06483
0.0815977 -0.234606 -0.0657647
0.0522236 -0.149244 -0.200966
0.087402 -0.255552 -0.0627229
0.0604406 -0.169811 -0.183617
0.0630756 -0.1736 -0.179966
0.0652999 -0.176486 -0.177093
0.0829211 -0.231567 -0.104207
-0.29349 0.451603 0.0538988
-0.292411 0.449447 0.0620126
-0.276311 0.408597 0.120253
-0.264315 0.375355 0.154892
-0.259182 0.357072 0.174167
-0.240041 0.304491 0.2176
-0.230983 0.288633 0.22137
-0.273073 0.444509 -0.0476349
-0.27437 0.442698 -0.0519822
-0.199581 0.229917 0.221788
-0.25572 0.434707 -0.113027
-0.247518 0.416188 -0.143782
-0.165812 0.169876 0.195056
-0.157478 0.152278 0.193019
-0.237387 0.403544 -0.177545
-0.146939 0.138218 0.188223
-0.12554 0.10106 0.181908
-0.220806 0.379393 -0.207234
-0.2051 0.354147 -0.225238
-0.0898061 0.00925411 0.214824
-0.0811083 -0.00731363 0.233289
-0.169889 0.298263 -0.253901
-0.0329984 -0.120328 0.27378
-0.0577742 -0.0338499 0.14418
-0.0431831 -0.0633755 0.169046
-0.0293826 -0.109775 0.225111
-0.137514 0.242545 -0.284325
-0.138779 0.240369 -0.285312
0.00335772 -0.170883 0.221507
-0.0214208 -0.084461 0.102088
0.00678877 -0.179437 0.227373
-0.001056 -0.147555 0.185976
-0.09858 0.169046 -0.294325
-0.010382 -0.10613 0.0941907
-0.0957144 0.162562 -0.295454
0.0257591 -0.215002 0.225915
0.0117946 -0.180534 0.176785
0.0289585 -0.214829 0.217439
0.0317015 -0.229742 0.232156
-0.0909189 0.149041 -0.297166
0.0227242 -0.172417 0.0982346
0.0264321 -0.182952 0.119187
0.0452474 -0.246077 0.205414
0.0323589 -0.20206 0.126491
0.0653734 -0.300284 0.242244
0.0689386 -0.302522 0.240271
-0.0512165 0.0739518 -0.293237
0.0624794 -0.273734 0.175882
0.0640296 -0.2736 0.167385
0.0828069 -0.325353 0.23392
0.05792 -0.25098 0.117448
0.0651396 -0.272587 0.145439
0.0649637 -0.271228 0.137218
0.0876352 -0.325217 0.191787
0.0858191 -0.318354 0.173181
0.111226 -0.381399 0.231127
0.114234 -0.386172 0.231569
0.111214 -0.385196 0.232685
4.00168e-05 -0.0397092 -0.257524
0.00568314 -0.0492847 -0.254137
0.0550816 -0.209982 -0.0340679
0.125976 -0.422039 0.255863
0.134035 -0.446402 0.283528
0.0166866 -0.0752157 -0.243839
0.138173 -0.457329 0.288472
0.0201533 -0.0791529 -0.240838
0.064731 -0.215233 -0.0538165
0.140146 -0.454059 0.278681
0.140964 -0.448717 0.25601
0.140575 -0.449492 0.258102
0.025917 -0.0995609 -0.230656
0.0352354 -0.111602 -0.221447
0.117727 -0.365299 0.127786
0.132612 -0.413047 0.195913
0.0794528 -0.25444 -0.0467007
0.0976686 -0.305665 0.0205271
0.0909941 -0.276094 -0.0309236
0.0946572 -0.292806 -0.00626996
0.0560406 -0.165308 -0.188769
0.091892 -0.272554 -0.035438
-0.2871 0.419161 0.107155
-0.287522 0.41607 0.110685
-0.289981 0.437993 0.0814195
-0.287962 0.429923 0.0934227
-0.28826 0.428428 0.0952924
-0.284627 0.415377 0.112059
-0.271913 0.375169 0.154003
-0.257204 0.342174 0.188806
-0.221416 0.264247 0.225341
-0.260592 0.427152 -0.118971
-0.180675 0.189427 0.202854
-0.175351 0.181399 0.198376
-0.161688 0.15142 0.194571
-0.241797 0.406073 -0.171871
-0.152888 0.136026 0.190374
-0.134548 0.104932 0.18506
-0.210185 0.361511 -0.220577
-0.209314 0.360478 -0.221237
-0.202696 0.34956 -0.227843
-0.108794 0.0521591 0.1713
-0.102962 0.0401377 0.174625
-0.101646 0.0363358 0.178091
-0.087117 -0.00712948 0.231276
-0.0837188 -0.0122075 0.236386
-0.0756027 -0.0283695 0.245861
-0.184344 0.317224 -0.241702
-0.0515102 -0.0768591 0.255499
-0.0365992 -0.120593 0.276627
-0.161887 0.272219 -0.266983
-0.0575699 -0.0354368 0.145094
-0.0623925 -0.0193498 0.113709
-0.0634834 -0.0212004 0.11601
-0.0486279 -0.0540772 0.161283
-0.0394537 -0.0799576 0.181764
-0.147919 0.253536 -0.279823
-0.0364109 -0.0999543 0.205849
-0.0573555 -0.028937 0.102788
-0.0239786 -0.12542 0.230909
-0.0200234 -0.136092 0.23373
-0.0210984 -0.136184 0.236966
-0.140947 0.237703 -0.286666
-0.0201455 -0.133771 0.220029
-0.0186664 -0.136425 0.221425
-0.020924 -0.135177 0.212378
-0.135877 0.223304 -0.291299
-0.0313458 -0.0676081 0.0947074
0.00218993 -0.178264 0.232238
-0.0260565 -0.0922133 0.104622
0.00920684 -0.192744 0.236382
0.0136073 -0.201849 0.236737
0.0181263 -0.213083 0.23926
0.00414873 -0.140443 0.0803137
-0.0817457 0.127137 -0.297544
0.0178037 -0.18217 0.116004
0.0106838 -0.156632 0.0783602
-0.0726419 0.1014 -0.297437
-0.0685397 0.098099 -0.296639
0.0485699 -0.264072 0.206336
0.0327106 -0.2078 0.11727
-0.0623612 0.088075 -0.295819
-0.0616263 0.0856006 -0.295724
0.0401248 -0.215586 0.109891
-0.0397773 0.0382024 -0.28741
0.0544032 -0.253212 0.11576
0.0868764 -0.349199 0.23758
0.0802028 -0.316545 0.179983
-0.0194495 -0.00591827 -0.274172
0.0540819 -0.226128 0.0291416
0.102321 -0.375435 0.233581
0.0581465 -0.236383 0.034154
0.0520164 -0.204907 -0.017482
-0.00546911 -0.033231 -0.261248
0.0954043 -0.339122 0.160645
0.114161 -0.393847 0.234878
0.098386 -0.348857 0.170089
0.0748017 -0.271201 0.0413324
0.135317 -0.45584 0.29257
0.0626376 -0.219432 -0.072238
0.0692153 -0.23325 -0.0577009
0.123325 -0.396097 0.169878
0.10925 -0.357812 0.109397
0.0905229 -0.291508 0.0164038
0.0346574 -0.127673 -0.217324
0.0369263 -0.135021 -0.214254
0.0821297 -0.267268 -0.0329474
0.0876558 -0.283711 -0.00589539
0.0957956 -0.303894 0.0145728
0.052425 -0.169289 -0.188204
0.0786265 -0.257367 -0.0668122
0.0864428 -0.273645 -0.0391195
0.088625 -0.274316 -0.0360435
0.0751083 -0.22639 -0.120813
0.0733299 -0.223818 -0.128562
-0.296341 0.434182 0.0835819
-0.28851 0.414669 0.112053
-0.285256 0.406196 0.122444
-0.27646 0.381566 0.147426
-0.263877 0.347614 0.181293
-0.215541 0.240615 0.226858
-0.276139 0.436853 -0.0653869
-0.271915 0.435668 -0.0765342
-0.199881 0.210281 0.220316
-0.254231 0.417874 -0.137346
-0.169737 0.165357 0.197041
-0.253072 0.411372 -0.152383
-0.159386 0.145548 0.193661
-0.154564 0.133703 0.190843
-0.234466 0.389609 -0.196728
-0.213285 0.358907 -0.222698
-0.10325 0.0342306 0.179205
-0.0893079 -0.0113251 0.233818
-0.193071 0.325538 -0.237134
-0.18211 0.308335 -0.246893
-0.178805 0.295328 -0.255518
-0.17631 0.294598 -0.255535
-0.0566935 -0.0751242 0.254962
-0.0528246 -0.0842793 0.260394
-0.170016 0.285319 -0.259572
-0.0365322 -0.12538 0.276754
-0.0572188 -0.0390164 0.146909
-0.0331573 -0.129768 0.27079
-0.0540568 -0.050635 0.154206
-0.0308755 -0.13014 0.263087
-0.0436037 -0.0851742 0.180369
-0.0387722 -0.0988118 0.196351
-0.0190422 -0.151245 0.242498
-0.138287 0.226023 -0.290607
-0.0186461 -0.139635 0.207159
-0.00881284 -0.172828 0.246264
-0.0106576 -0.152918 0.220467
-0.0105318 -0.153095 0.220336
-0.0378231 -0.0728106 0.102026
-0.0115945 -0.143816 0.191642
-0.0013433 -0.171018 0.228753
0.00279903 -0.191584 0.244716
-0.0171638 -0.136892 0.160524
-0.014293 -0.138397 0.170113
0.00495686 -0.185938 0.236309
0.00865874 -0.201051 0.24424
-0.0228769 -0.104405 0.103364
0.0116356 -0.212963 0.251262
-0.00899503 -0.12437 0.080624
-0.0941534 0.146739 -0.29776
-0.00596882 -0.12814 0.0815082
0.00934471 -0.179731 0.151865
0.00254406 -0.142244 0.0801625
0.013952 -0.189206 0.138892
0.0113686 -0.16701 0.0874162
0.0171781 -0.170358 0.0925176
0.017826 -0.168088 0.0868657
0.0453189 -0.267222 0.204282
0.0486154 -0.267063 0.204344
0.0473993 -0.269631 0.200812
0.0583553 -0.302748 0.247691
0.0595105 -0.300823 0.246347
-0.0476566 0.0427834 -0.289292
0.0464391 -0.242812 0.108353
0.0592728 -0.277577 0.156635
0.0857846 -0.352204 0.239091
0.0512515 -0.229991 0.0282812
-0.00841904 -0.0289166 -0.263326
0.0885608 -0.338182 0.158458
0.107247 -0.403615 0.243035
-0.00287101 -0.0496293 -0.258658
0.0703096 -0.265735 0.0387166
0.12564 -0.441479 0.278008
0.0111612 -0.0806518 -0.245221
0.0564238 -0.219046 -0.0497031
0.133305 -0.452493 0.25495
0.131262 -0.443763 0.236015
0.13472 -0.448696 0.24738
0.113846 -0.380187 0.144687
0.12057 -0.39948 0.17177
