ply
format ascii 1.0
comment Created by Open3D
element vertex 1630
property double x
property double y
property double z
end_header
0.135265 0.323359 -0.217161
0.228631 0.0908184 -0.0524891
0.251221 0.0593683 -0.103363
0.288759 -0.00850539 -0.101883
0.0670422 0.386664 0.019249
0.144817 0.271445 -0.164792
0.239731 0.0505899 -0.005279
0.282351 -0.00534913 -0.112523
0.180935 0.158852 0.00219392
0.148975 0.266071 -0.177856
0.210982 0.0982733 -0.00815164
0.204808 0.166371 -0.219745
0.274112 0.00285943 -0.0994534
0.0852806 0.32295 0.0566846
0.167931 0.158566 0.0249633
0.154684 0.263405 -0.227162
0.244324 0.0458428 -0.100491
0.282045 -0.0348595 -0.0616215
0.0563367 0.377105 0.0286669
0.10577 0.346089 -0.213124
0.178765 0.152191 0.00188306
0.228504 0.0543874 -0.0179093
0.208872 0.142012 -0.216935
0.268055 -0.00593763 -0.102126
0.0119799 0.482318 -0.0518566
0.0935191 0.358525 -0.209614
0.203686 0.0831434 0.0193534
0.213975 0.124465 -0.211174
0.271535 -0.0148458 -0.11565
0.0746833 0.315436 0.0616564
0.0835877 0.369697 -0.204711
0.121714 0.284639 -0.154564
0.18079 0.132598 -0.00173068
0.210442 0.0693982 -0.00996997
0.21125 0.117637 -0.211323
0.269443 -0.0213348 -0.0861856
0.0147742 0.439387 0.00534995
0.0596501 0.407453 -0.175984
0.108709 0.298669 -0.166015
0.172011 0.13035 0.00575156
0.213519 0.0739742 -0.0885752
0.261297 -0.0233927 -0.0415972
-0.00312393 0.484144 -0.0357029
0.0355528 0.434259 -0.14963
0.112227 0.302672 -0.22735
0.14735 0.22641 -0.185082
0.206577 0.0571687 -0.0164141
0.258481 -0.029151 -0.0325035
0.00418586 0.445017 0.00665142
0.151083 0.151189 0.0503897
0.120348 0.275082 -0.208803
0.206109 0.0527785 -0.0175701
0.259886 -0.0465758 -0.034661
-0.00570108 0.473701 -0.0767409
0.099452 0.228541 0.121963
0.107235 0.273665 -0.128588
0.175974 0.0964578 0.0187122
0.155769 0.201192 -0.213715
0.195422 0.121032 -0.220895
0.247769 -0.00228868 -0.146408
0.0534962 0.320464 0.0580497
0.0374831 0.409086 -0.175187
0.0917297 0.311898 -0.194063
0.180621 0.0785216 0.0357518
0.159061 0.180859 -0.211604
0.241169 -0.0373546 0.010766
0.23326 0.0163701 -0.133844
0.250493 -0.0214966 -0.134
0.0484319 0.315661 0.0662822
0.110349 0.18219 0.133594
0.0637013 0.364794 -0.209984
0.165207 0.0960281 0.031341
0.193543 0.0321877 0.0577227
0.213093 -0.000514447 0.0294973
0.226307 -0.0201551 0.0194446
0.242636 -0.04999 0.012245
0.255943 -0.0636238 -0.021114
-0.0253178 0.483467 -0.0484597
0.0473234 0.313275 0.069825
0.118203 0.153186 0.13837
0.0893887 0.287517 -0.142352
0.163531 0.100609 0.0280321
0.173006 0.0852183 0.0219443
0.190306 0.0408005 0.0463536
0.190319 0.0454461 0.0238779
0.192581 0.0616273 -0.026569
0.17197 0.150517 -0.232414
0.230476 -0.00927601 -0.0460126
0.216685 0.0265787 -0.118687
0.249935 -0.0377254 -0.114245
0.0517729 0.291217 0.0926479
0.108837 0.161743 0.14728
0.0760328 0.327867 -0.227865
0.180672 0.0561386 0.0388186
0.19514 0.0364938 0.00564444
0.203531 0.026304 -0.00850087
0.232314 -0.0461094 0.00729289
0.243938 -0.0542258 -0.0305181
0.234183 -0.00101512 -0.155579
0.0429193 0.309484 0.0765681
0.0871353 0.264663 -0.113513
0.111569 0.25237 -0.207835
0.192607 0.0134894 0.0682481
0.201721 0.00197535 0.00380037
0.170337 0.13538 -0.232
0.239732 -0.0637689 0.0215821
0.249027 -0.0900378 0.0130975
0.225893 0.00559886 -0.164145
-0.0281889 0.454894 0.0140804
0.0346655 0.303778 0.0851063
0.0632252 0.244443 0.13033
0.118093 0.139848 0.121649
0.14557 0.10235 0.0273545
0.16547 0.055917 0.0615736
0.196601 0.010579 0.0387577
0.22963 -0.0507455 -0.0115737
0.208802 0.0457505 -0.194095
0.232673 -0.0205468 -0.148827
-0.00859116 0.441459 -0.135197
0.115593 0.138154 0.128943
0.0659444 0.312723 -0.206196
0.155341 0.0674328 0.0653277
0.168573 0.047787 0.050449
0.133635 0.171311 -0.153008
0.149093 0.156022 -0.209875
0.186649 0.081408 -0.217909
0.23644 -0.0375069 -0.131585
0.0584755 0.235668 0.138653
0.0791882 0.266766 -0.117484
0.127462 0.12033 0.04642
0.101105 0.243492 -0.21044
0.194649 -0.0141947 0.0531865
0.225503 -0.0568057 -0.0111695
0.201742 0.043156 -0.198404
-0.0509622 0.485697 -0.0275564
0.0368437 0.278547 0.107993
0.0818091 0.171479 0.161283
0.0957774 0.216312 -0.108158
0.132465 0.143881 -0.125242
0.201376 -0.0250915 0.0249374
0.181097 0.0859186 -0.222154
0.227166 -0.0393069 -0.105949
-0.0175997 0.396223 0.0304953
0.0663091 0.191012 0.162919
0.0613041 0.307569 -0.211433
0.0993455 0.237707 -0.212637
0.127002 0.143855 -0.11074
0.189512 -0.0175423 0.0648392
0.211511 -0.0536549 0.038357
0.232071 -0.0906744 0.0223523
0.213168 -0.00117711 -0.169451
-0.0414903 0.469475 -0.0800226
0.0348468 0.265526 0.118187
0.0400472 0.344714 -0.2217
0.0963996 0.198465 -0.0990317
0.165502 0.0211983 0.0775331
0.176969 0.00217751 0.0689454
0.133128 0.156596 -0.189098
0.218673 -0.0726964 0.0315307
0.200642 0.0152408 -0.186607
-0.0631238 0.467731 0.0244055
0.0365793 0.246185 0.13461
0.130185 0.0874548 0.043968
0.0880814 0.242101 -0.229433
0.172656 -0.00915532 0.0859859
0.125137 0.1748 -0.246604
0.213961 -0.0679957 -0.0116894
0.222229 -0.073206 -0.0362777
0.218935 -0.0462103 -0.103578
0.234356 -0.0893062 -0.0669021
-0.0692711 0.480203 0.00296757
0.0518181 0.20096 0.164646
0.0560556 0.274704 -0.16011
0.136643 0.0727689 0.0119246
0.122013 0.142664 -0.159977
0.12499 0.171438 -0.246784
0.16801 0.043807 -0.114801
0.193002 0.00534023 -0.144556
0.2403 -0.121339 -0.0251456
-0.0663926 0.461586 0.0310583
0.0231583 0.254305 0.130773
0.0933153 0.107775 0.146187
0.0444189 0.313344 -0.236138
0.156517 0.0122082 0.0919423
0.108646 0.184764 -0.250112
0.131937 0.142439 -0.244186
0.233665 -0.120406 0.00494754
-0.0814792 0.475729 0.0198309
-0.0708272 0.480086 -0.0514583
-0.000644236 0.302081 0.0969036
-0.0244339 0.417838 -0.164085
0.0513919 0.292526 -0.241245
0.136022 0.0520934 0.0545266
0.170123 -0.0256328 0.0909792
0.137254 0.123324 -0.241959
0.233388 -0.122004 0.00481472
0.216766 -0.0672058 -0.120668
-0.0676878 0.473372 -0.0656601
0.046348 0.187969 0.17301
0.0673538 0.217103 -0.110892
0.135586 0.0569832 0.00845819
0.136031 0.0768963 -0.0768009
0.148002 0.0529907 -0.0917098
0.215672 -0.113748 0.0246843
0.238513 -0.137729 -0.0156821
0.237465 -0.145658 -0.0141712
-0.0317716 0.358851 0.0600614
0.0714791 0.130809 0.173013
0.12464 0.0333182 0.116813
0.152716 -0.00196214 0.0715844
0.173054 -0.0474035 0.0806034
0.166434 -0.0123563 -0.0014409
0.202765 -0.0924227 0.0380965
0.181774 -0.0201119 -0.0845544
0.183668 -0.0231452 -0.104815
0.18678 0.000722795 -0.18988
-0.0881296 0.483943 -0.0117084
-0.00595641 0.286806 0.110618
7.19994e-05 0.361491 -0.211725
0.1036 0.0859706 0.0534833
0.127821 0.0469123 0.0527468
0.146418 0.00291027 0.0710739
0.13699 0.0690113 -0.0972929
0.149591 0.0456282 -0.0993795
0.18386 -0.0398646 -0.06391
0.184855 -0.00956554 -0.138838
0.173713 0.0208681 -0.207117
0.241315 -0.166431 -0.0123196
0.0193762 0.214254 0.163107
0.0293765 0.291266 -0.211638
0.137353 -0.00180984 0.112785
0.128479 0.0433912 -0.00478027
0.131598 0.0521116 -0.0875811
0.17857 -0.0507738 -0.0186165
0.153768 0.0632822 -0.231794
0.194829 -0.0461578 -0.117251
0.229322 -0.131523 -0.0650672
-0.095448 0.482923 -0.00922079
-0.003569 0.265327 0.12695
-0.0119729 0.371486 -0.203595
0.104744 0.0447669 0.135546
0.0340073 0.287781 -0.245313
0.157444 -0.0507725 0.121895
0.151407 -0.0123152 0.0196667
0.134563 0.0467932 -0.110532
0.203058 -0.116719 0.0339732
0.232547 -0.156095 -0.00703527
-0.0825865 0.465808 -0.0774505
-0.00151904 0.247975 0.143692
-0.00942057 0.359396 -0.212558
0.0659003 0.176314 -0.0983261
0.0948298 0.126718 -0.126648
0.168746 -0.0547241 0.0226094
0.183968 -0.0366797 -0.127634
0.248498 -0.234484 0.103616
-0.0977241 0.479201 -0.0400046
-0.0541418 0.429192 -0.15337
0.0669441 0.103258 0.159349
0.0867775 0.0855114 0.0658829
0.0973501 0.0714266 0.0627499
0.0422468 0.249337 -0.254511
0.157748 -0.0656902 0.120316
0.163072 -0.0787526 0.0869576
0.17821 -0.0917217 0.058355
0.196212 -0.122796 0.0396433
0.244078 -0.244275 0.130892
0.230828 -0.168918 -0.0222375
-0.0911597 0.433137 0.064021
-0.0465124 0.332074 0.0904605
0.0588426 0.111161 0.132969
0.0778159 0.0947465 0.0481505
0.04121 0.256343 -0.257786
0.149457 -0.0628794 0.130673
0.151662 -0.0601652 0.0858672
0.149592 -0.0381157 0.0174547
0.117368 0.101559 -0.248167
0.188745 -0.0899383 -0.0745455
0.22148 -0.185049 0.0399055
0.202225 -0.0963543 -0.130505
-0.0354859 0.299303 0.110511
0.0561939 0.109353 0.13911
0.0748396 0.0958244 0.0571952
0.100412 0.0205935 0.131858
0.1357 -0.0368215 0.122199
0.0651672 0.198349 -0.241244
0.172279 -0.0926175 0.0611266
0.142203 0.0438941 -0.232135
0.18725 -0.0882084 -0.0802242
0.214735 -0.169231 0.0141846
0.227508 -0.19809 0.017545
0.222098 -0.175373 -0.0410469
-0.0852719 0.448904 -0.120155
0.0344382 0.221194 -0.133892
0.0455763 0.221117 -0.246451
0.108514 0.0486508 -0.0578692
0.153629 -0.0707172 0.0585826
0.178151 -0.110939 0.051115
0.201931 -0.167204 0.0575218
0.19212 -0.105908 -0.0571491
0.228633 -0.208346 0.0567048
0.205064 -0.122913 -0.101188
-0.120952 0.473871 0.033759
-0.037192 0.284778 0.121351
-0.0469557 0.384769 -0.191553
0.0322282 0.222836 -0.137729
0.107486 0.00666197 0.0874451
0.0414124 0.23069 -0.256838
0.124063 -0.0122028 0.030897
0.162231 -0.0820545 0.0489601
0.179856 -0.117197 0.0131834
0.198398 -0.150722 0.017829
0.190597 -0.116812 -0.0469874
0.240863 -0.272705 0.148759
0.224192 -0.209049 0.0308168
-0.0784049 0.369338 0.0722581
-0.0775965 0.426053 -0.154766
0.0740351 0.0460136 0.150887
0.092938 0.0338966 0.111616
0.102273 0.0215786 0.0497055
0.114078 0.00676317 0.0488922
0.113073 0.0106619 0.0151118
0.110633 0.0371101 -0.0673274
0.175107 -0.0937534 -0.00626365
0.196508 -0.158116 0.0305231
0.18792 -0.11264 -0.0575751
0.156746 -0.016983 -0.204204
0.225019 -0.225791 0.0529615
0.214491 -0.180525 -0.0480736
-0.100355 0.400447 0.0788682
-0.0343717 0.249712 0.150006
0.0432709 0.105933 0.134966
0.0842541 0.046539 0.0918081
0.0235026 0.236696 -0.202631
0.0954987 0.0285863 0.0510429
0.109949 0.00828025 0.0521235
0.137032 -0.0790489 0.140639
0.131033 -0.0482688 0.0646723
0.0734386 0.147503 -0.26492
0.186627 -0.143422 0.0287291
0.18497 -0.106097 -0.0681265
0.172863 -0.079533 -0.143447
0.220114 -0.21409 0.0295262
0.212089 -0.171653 -0.0632452
-0.0865538 0.361946 0.0860082
-0.0326566 0.241666 0.15616
0.0403704 0.102459 0.138334
0.0897954 0.00529789 0.142596
0.019877 0.251607 -0.265241
0.0490073 0.189965 -0.23392
0.0459432 0.20229 -0.267889
0.128643 -0.013405 -0.0815033
0.188489 -0.132348 -0.0456508
0.189242 -0.133199 -0.0699557
0.190929 -0.142134 -0.0815849
0.207786 -0.169438 -0.0720476
-0.116384 0.413101 0.0871458
-0.0477812 0.264303 0.141293
-0.00679781 0.17636 0.177671
0.0446531 0.0970132 0.104381
0.0865068 0.00477176 0.132753
0.0430464 0.153702 -0.108691
0.046714 0.172251 -0.206281
0.114509 -0.0157546 0.0361479
0.0716616 0.122469 -0.179326
0.121364 -0.00114029 -0.0820399
0.185532 -0.168276 0.061643
0.131138 0.00967348 -0.225128
0.212132 -0.198082 0.00432697
-0.121303 0.417724 0.0896629
-0.108312 0.445687 -0.132793
0.0732698 0.0345555 0.0946568
0.013029 0.246089 -0.244988
0.0553478 0.166567 -0.271955
0.168272 -0.140682 0.0561021
0.215671 -0.255919 0.148742
0.181624 -0.123962 -0.114331
-0.149986 0.470429 0.0445156
-0.0982063 0.37263 0.0828449
-0.0962525 0.425652 -0.155447
0.0351042 0.0856245 0.156028
0.0825743 -0.00178502 0.125462
0.00786132 0.247001 -0.265379
0.0177595 0.230233 -0.26567
0.12511 -0.0781333 0.091047
0.0628911 0.144613 -0.269532
0.179927 -0.168051 0.0630213
0.181817 -0.155795 -0.0437831
-0.152854 0.471529 0.0390292
-0.121972 0.455309 -0.117393
0.0246142 0.10137 0.12713
0.0510231 0.0713551 0.075124
0.0221354 0.193154 -0.168322
0.00700057 0.245755 -0.266749
0.123241 -0.0936964 0.144918
0.15861 -0.1359 0.0580774
0.170238 -0.154015 0.0409754
0.216129 -0.252848 0.0756231
0.178294 -0.119797 -0.14201
-0.143894 0.47185 -0.0388292
-0.0755678 0.290517 0.131674
0.0274048 0.0910569 0.143722
0.0833115 -0.0239804 0.144562
0.0278883 0.172654 -0.180536
0.107238 -0.0400103 0.0535774
0.110188 0.030567 -0.239574
0.214001 -0.265661 0.0910573
0.176202 -0.140767 -0.106678
-0.100593 0.331259 0.12528
-0.0835262 0.387605 -0.191017
0.0386108 0.0764863 0.0781891
0.0955733 -0.0412172 0.0988036
0.0869595 0.00864215 -0.0146766
0.1065 -0.0205339 -0.0742587
0.160293 -0.169601 0.0809921
0.172641 -0.17889 0.0392712
0.140212 -0.0734083 -0.129732
0.169659 -0.137699 -0.115412
-0.151169 0.431807 0.0992568
-0.0649415 0.252358 0.154241
-0.062371 0.342515 -0.229219
0.0680432 3.31326e-05 0.112411
0.0227446 0.156272 -0.151537
0.030761 0.141252 -0.155171
0.0290048 0.183586 -0.277303
0.0641089 0.103897 -0.264956
0.0878615 0.0557301 -0.25088
0.138567 -0.0670454 -0.1474
0.173401 -0.161123 -0.0482608
0.177261 -0.167864 -0.0555749
0.162875 -0.114955 -0.134428
0.188846 -0.19095 -0.0707344
-0.155852 0.47144 -0.0296042
-0.0747031 0.258934 0.152209
0.0220528 0.0890357 0.0908303
0.0563969 0.0203062 0.104091
0.0272508 0.146784 -0.152648
0.118825 -0.10903 0.12293
0.0704318 0.0897079 -0.2599
0.187895 -0.25273 0.14926
0.132383 -0.0672553 -0.152916
0.151092 -0.102663 -0.134044
0.162279 -0.120423 -0.129594
-0.169163 0.474038 0.0331999
-0.142955 0.461259 -0.104105
-0.0499764 0.193541 0.180358
0.0363375 0.0598061 0.0666157
0.0836105 -0.0397916 0.107003
0.0773656 0.00142063 -0.0185649
0.0327292 0.157929 -0.279519
0.0934563 0.0314014 -0.244387
0.14357 -0.100663 -0.130456
0.193706 -0.240789 0.026199
-0.170129 0.462582 0.0537263
-0.162932 0.475216 -0.0805021
0.00427176 0.0935276 0.122213
0.06499 -0.0178692 0.104235
0.110002 -0.110875 0.146339
0.0491765 0.111988 -0.271162
0.143415 -0.164376 0.0801431
0.0758775 0.0518102 -0.253322
0.117351 -0.0296653 -0.217965
0.178674 -0.204818 -0.0256446
0.171622 -0.165048 -0.116061
-0.157841 0.419886 0.11184
-0.137238 0.441269 -0.13441
0.00978352 0.0507929 0.19336
0.0499926 0.00933942 0.115487
0.0731973 -0.0520415 0.141933
0.0882367 -0.0470558 0.0228013
0.139738 -0.180686 0.123887
0.0688915 0.0634809 -0.256965
0.162446 -0.193611 0.0166617
0.189389 -0.244345 0.0245365
-0.185839 0.464629 0.0932248
-0.116447 0.320475 0.137668
-0.12054 0.404873 -0.170404
-0.0862605 0.350428 -0.223837
0.0260003 0.0579893 0.0484165
0.104792 -0.115229 0.143196
0.13477 -0.161652 0.0905479
0.10277 -0.0494667 -0.0939642
0.121639 -0.0887003 -0.0998408
0.158019 -0.180275 -0.0382913
0.177708 -0.213323 -0.0415864
-0.185056 0.472126 0.0117845
-0.105098 0.27864 0.154682
-0.00237462 0.0728316 0.192695
0.0148527 0.0778555 0.035935
0.0237422 0.0536694 0.0516821
0.0575812 -0.0204546 0.100205
0.10269 -0.0994986 0.0708089
0.0925026 -0.0387002 -0.0730073
0.129237 -0.149506 0.0608884
0.157748 -0.232224 0.149859
0.144094 -0.165646 -0.00494458
0.1051 -0.0309415 -0.221476
0.198954 -0.31009 0.127483
0.162199 -0.181745 -0.0822789
-0.141429 0.352387 0.133877
-0.126964 0.402255 -0.174179
0.00263287 0.0656898 0.153412
0.0397358 -0.0050262 0.124169
0.0784038 -0.05991 0.0743919
0.103506 -0.110015 0.0616287
0.0496593 0.0820864 -0.265494
0.129646 -0.149489 -0.01704
0.160364 -0.201977 -0.0115921
0.150155 -0.1626 -0.10748
0.169469 -0.200873 -0.0758795
-0.152536 0.360076 0.143832
-0.0043044 0.0574954 0.198398
-0.0533619 0.277639 -0.259997
0.0518117 -0.0125999 0.0424797
0.115594 -0.159234 0.106068
0.0532648 0.0637808 -0.262237
0.0794164 0.00746891 -0.241518
0.118911 -0.0738813 -0.202784
0.144344 -0.141595 -0.155494
-0.166924 0.376161 0.156193
-0.0780895 0.202855 0.179167
-0.0954524 0.342346 -0.230106
-0.0802859 0.318798 -0.241963
0.0480465 -0.00876916 0.0451266
0.0843976 -0.0727095 0.0199211
0.145358 -0.231299 0.155964
0.109207 -0.0947658 -0.110168
0.162304 -0.21477 -0.00224694
0.134728 -0.123484 -0.173527
-0.207146 0.475588 0.0608627
-0.163409 0.368435 0.155286
-0.18154 0.465678 -0.0887219
-0.133941 0.39433 -0.183278
-0.0379754 0.130813 0.0879572
-0.0154184 0.0781831 0.119609
-0.0546118 0.260421 -0.267046
0.0449896 -0.0258985 0.0640783
0.0668415 -0.029153 -0.0429842
0.0524768 0.0490539 -0.260305
0.104198 -0.0636687 -0.212423
0.127851 -0.111266 -0.187724
-0.21047 0.480033 0.0242648
-0.188319 0.465185 -0.0440225
-0.0975486 0.221293 0.173613
-0.0093168 0.0423199 0.207755
0.0261407 0.00332016 0.103819
0.0679797 -0.0963259 0.150011
0.0848172 -0.0917622 -0.00430852
0.117428 -0.144962 -0.0143715
0.0916033 -0.0498307 -0.221288
0.191031 -0.336247 0.146475
-0.208633 0.450516 0.110737
-0.150275 0.324546 0.148436
-0.0485549 0.145727 0.0820513
-0.00417681 0.0292521 0.18737
0.0244061 -0.00386777 0.109518
0.0544472 -0.0539559 0.0771849
0.103922 -0.175113 0.129668
0.0514442 0.0393386 -0.25954
0.135595 -0.2 -0.00619652
0.174179 -0.295756 0.0894954
0.160576 -0.250654 -0.000326023
-0.212433 0.454696 0.101227
-0.108008 0.225143 0.176021
-0.0258187 0.0610474 0.193373
-0.0153439 0.0549767 0.144733
0.0497413 -0.06724 0.151035
-0.0120662 0.158542 -0.288025
0.102291 -0.125923 -0.0232086
0.125739 -0.191752 0.00846694
0.18565 -0.35322 0.193166
0.104094 -0.0892114 -0.205086
-0.215334 0.453781 0.0991323
-0.203915 0.460436 -0.031126
-0.140942 0.28612 0.172112
-0.137058 0.37385 -0.205853
-0.00566138 0.0115162 0.189975
-0.000252712 0.0435352 0.0442142
0.0633069 -0.109425 0.146595
0.0656514 -0.0640073 -0.0300391
0.0379398 0.0472926 -0.266844
0.131409 -0.217796 0.0472336
0.178892 -0.354431 0.195824
0.156033 -0.254512 0.000205657
0.139735 -0.193381 -0.107925
-0.199659 0.464683 -0.0947429
-0.0463587 0.0923307 0.176186
-0.00993641 0.0129852 0.177812
-0.000602605 0.0302503 0.0558953
0.0391051 -0.047883 0.0922558
0.061397 -0.0672029 -0.0222369
0.0747446 -0.0884119 -0.0258865
0.0561228 0.00219655 -0.250691
0.179625 -0.358613 0.198305
0.158655 -0.274487 0.0352797
-0.21158 0.421217 0.128847
-0.20957 0.467515 -0.0580052
-0.170227 0.41007 -0.15944
-0.0234987 0.0489689 0.140306
0.0207653 -0.0308439 0.121496
0.0940802 -0.190005 0.164295
0.0128067 0.0869437 -0.278688
0.117105 -0.20004 0.031971
0.106556 -0.15383 -0.107176
0.162028 -0.305543 0.0888694
-0.209747 0.403169 0.147373
-0.117608 0.211062 0.181069
-0.0382022 0.0714253 0.101185
-0.0295928 0.0717211 0.0533372
0.0574534 -0.107461 0.0695467
0.122375 -0.261208 0.184529
0.118696 -0.221341 0.0545479
0.168443 -0.353845 0.197783
0.131865 -0.216409 -0.0224176
0.145328 -0.260703 -0.00219035
-0.237223 0.474988 0.0331677
-0.111394 0.193568 0.181179
-0.0292524 0.0173243 0.231719
0.00761777 -0.0274092 0.111217
0.0786874 -0.181092 0.16132
0.0831116 -0.167391 0.106778
0.0841583 -0.105838 -0.118719
0.128203 -0.21476 -0.0245269
0.150348 -0.276573 0.0285834
0.129134 -0.205381 -0.101496
-0.171762 0.296004 0.190307
-0.129526 0.219517 0.185926
-0.0119599 -0.0170259 0.222531
-0.00289197 -0.00465365 0.091454
0.0920006 -0.217584 0.184992
0.0069311 0.0693468 -0.279104
0.082663 -0.110466 -0.117768
0.110983 -0.19493 -0.046624
0.167444 -0.349489 0.146969
0.112399 -0.173894 -0.148167
-0.173232 0.291251 0.193947
-0.179666 0.406472 -0.165929
-0.0469143 0.0460833 0.194064
-0.0237016 0.0391383 0.0481297
0.0321963 -0.0904201 0.142267
0.075454 -0.17575 0.125847
0.00395416 0.0730998 -0.280098
0.0463854 -0.0256052 -0.247043
0.110211 -0.184143 -0.0803972
0.146044 -0.289694 0.0488494
-0.246122 0.462301 0.0696908
-0.206052 0.431295 -0.116106
-0.0359139 0.000489777 0.242628
-0.0026471 -0.0492164 0.212112
0.0430704 -0.118647 0.112866
-0.0166914 0.102502 -0.284752
0.0975594 -0.202415 0.0331041
0.171045 -0.39876 0.222233
0.137512 -0.272867 0.0085681
-0.234475 0.46623 -0.0741929
-0.0768287 0.0913091 0.173037
-0.0112684 -0.0495183 0.23947
-0.00103619 -0.0714076 0.235114
0.024892 -0.0917694 0.138091
0.0629997 -0.17694 0.130593
0.0944387 -0.246547 0.204734
0.0180804 0.02636 -0.271004
0.156501 -0.377228 0.213295
0.127006 -0.25651 0.00650955
0.116496 -0.207728 -0.107848
-0.174911 0.272482 0.203454
-0.201635 0.413133 -0.159404
-0.0518093 0.0530425 0.0949083
-0.0655609 0.183148 -0.288349
0.0584492 -0.146617 0.0680189
0.137604 -0.339894 0.203368
0.163587 -0.401005 0.225156
0.13663 -0.299754 0.0551731
0.126387 -0.25963 -0.0220077
-0.201444 0.318213 0.200932
-0.187034 0.393558 -0.187596
-0.036681 0.0139526 0.146032
-0.00610285 -0.0784546 0.239103
-0.0948404 0.240776 -0.272724
0.0641594 -0.196158 0.17457
0.111012 -0.298061 0.204004
0.151071 -0.380021 0.215808
0.118524 -0.259035 -0.00282715
-0.259013 0.468198 0.0382617
-0.1421 0.192921 0.186452
-0.0827848 0.0837378 0.172546
-0.12337 0.277283 -0.262416
0.0178555 -0.10036 0.134655
0.0503278 -0.15109 0.0698824
0.0814438 -0.188278 -0.00467102
0.0526004 -0.0786505 -0.224798
0.103868 -0.223932 -0.0724286
-0.25486 0.436232 0.0968316
-0.189738 0.275618 0.209356
-0.107953 0.121591 0.178552
-0.0438035 -0.0194362 0.248198
-0.129808 0.282123 -0.259201
0.028156 -0.123361 0.101399
0.044587 -0.148877 0.0697496
0.0922154 -0.238295 0.0495621
0.113295 -0.260737 -0.0116403
-0.225179 0.341176 0.200021
-0.217352 0.41649 -0.146084
-0.0485741 -0.0210562 0.24819
-0.0200438 -0.0683189 0.21459
0.016575 -0.10933 0.12498
-0.055024 0.134455 -0.298333
0.0851686 -0.277115 0.218142
0.0747337 -0.184866 -0.0383732
0.0464912 -0.0869343 -0.224186
0.120682 -0.28747 0.0143937
-0.268714 0.446722 0.0799348
-0.171347 0.222184 0.206091
-0.05897 -0.00383659 0.238243
-0.0380846 -0.02667 0.159417
0.0106634 -0.109755 0.10287
0.0453832 -0.179654 0.124154
-0.0364805 0.091872 -0.289563
-0.0166619 0.0501065 -0.284102
0.0698783 -0.188266 -0.0275553
0.12896 -0.334673 0.0962323
0.108343 -0.265662 -0.0289791
-0.265011 0.429106 0.100692
-0.230059 0.419896 -0.138756
-0.0889294 0.0667476 0.1712
-0.0331111 -0.0464865 0.172898
-0.0793325 0.172141 -0.292318
-0.0530592 0.110895 -0.292137
-0.0291295 0.0671472 -0.288036
0.0195219 -0.0372882 -0.248634
0.118067 -0.302806 0.0372632
0.0878236 -0.207324 -0.134583
-0.220754 0.410505 -0.160131
-0.0806394 0.0363998 0.186879
-0.0191873 -0.101371 0.248691
-0.0135818 -0.0682372 0.0959912
0.0545041 -0.23944 0.228069
0.0723827 -0.261925 0.177191
0.061611 -0.19788 0.0117175
0.145292 -0.408802 0.200201
0.0966969 -0.248213 -0.0574408
-0.255295 0.447756 -0.0895275
-0.149749 0.280163 -0.263004
-0.130598 0.24763 -0.2816
0.0181904 -0.166647 0.166667
0.037774 -0.186804 0.130508
0.100009 -0.325733 0.174853
0.148689 -0.44371 0.261379
0.132489 -0.380673 0.158791
0.0953109 -0.247402 -0.0567238
-0.253222 0.369682 0.162561
-0.127608 0.117996 0.184744
-0.148478 0.272604 -0.267295
-0.0313325 -0.0579654 0.0963842
-0.00147132 -0.111754 0.0842776
0.0394832 -0.206132 0.173094
0.0898087 -0.320025 0.186658
0.134531 -0.422775 0.253545
0.0470121 -0.128575 -0.21308
0.0622307 -0.163082 -0.186539
0.08133 -0.213508 -0.135463
-0.185025 0.209962 0.212279
-0.15537 0.275228 -0.265622
0.00104587 -0.145228 0.175782
0.028404 -0.194789 0.183547
0.0662588 -0.288243 0.237791
0.0692894 -0.267027 0.130914
0.0561045 -0.19773 -0.022116
0.138471 -0.436094 0.271773
0.0437874 -0.131153 -0.213408
0.0829211 -0.231567 -0.104207
-0.273073 0.444509 -0.0476349
-0.146939 0.138218 0.188223
-0.0577742 -0.0338499 0.14418
-0.001056 -0.147555 0.185976
-0.0909189 0.149041 -0.297166
0.0624794 -0.273734 0.175882
0.111226 -0.381399 0.231127
0.0166866 -0.0752157 -0.243839
0.0352354 -0.111602 -0.221447
0.091892 -0.272554 -0.035438
-0.257204 0.342174 0.188806
-0.134548 0.104932 0.18506
-0.0837188 -0.0122075 0.236386
-0.0634834 -0.0212004 0.11601
-0.0210984 -0.136184 0.236966
-0.0260565 -0.0922133 0.104622
-0.0726419 0.1014 -0.297437
0.0544032 -0.253212 0.11576
-0.00546911 -0.033231 -0.261248
0.123325 -0.396097 0.169878
0.052425 -0.169289 -0.188204
-0.285256 0.406196 0.122444
-0.169737 0.165357 0.197041
-0.193071 0.325538 -0.237134
-0.0572188 -0.0390164 0.146909
-0.0186461 -0.139635 0.207159
-0.0171638 -0.136892 0.160524
-0.00596882 -0.12814 0.0815082
0.0486154 -0.267063 0.204344
0.0512515 -0.229991 0.0282812
0.0564238 -0.219046 -0.0497031
0.132523 -0.433748 0.22163
0.0632734 -0.201659 -0.163677
-0.297553 0.446338 0.0439075
-0.181536 0.167542 0.202281
-0.110542 0.03871 0.172844
-0.0665437 -0.0298116 0.128522
-0.0260713 -0.14176 0.239701
-0.125003 0.190104 -0.297464
-0.0986841 0.139474 -0.299619
0.0364468 -0.248583 0.205497
0.0454303 -0.251938 0.110161
0.0879216 -0.34446 0.157032
0.0582429 -0.220112 -0.0705322
0.0633445 -0.211047 -0.154116
-0.285389 0.43554 -0.0392027
-0.141023 0.0941993 0.188393
-0.17513 0.275093 -0.264578
-0.0517492 -0.0732699 0.158624
-0.0275452 -0.137247 0.196259
-0.0325846 -0.106446 0.11018
0.0237718 -0.251273 0.260155
0.0546104 -0.314069 0.253231
0.0439601 -0.221568 0.00385666
0.126581 -0.463854 0.292476
0.0925923 -0.331551 0.0585385
0.0845213 -0.296872 -0.00943919
-0.305492 0.437935 0.0685277
-0.277169 0.423979 -0.0888876
-0.145855 0.0858113 0.190217
-0.200211 0.312063 -0.250102
-0.0579776 -0.0594395 0.130454
-0.0151154 -0.181847 0.2601
-0.00499327 -0.184499 0.180671
-0.000491193 -0.164331 0.0883521
0.0369061 -0.264338 0.1539
-0.0316152 -0.0118621 -0.276473
0.0440698 -0.226591 -0.011002
0.0522333 -0.225746 -0.0649562
0.090307 -0.343305 0.0732937
-0.30499 0.421017 0.0942976
-0.285432 0.427947 -0.0664998
-0.199436 0.303021 -0.257551
-0.0380169 -0.138192 0.212285
-0.018194 -0.168068 0.173803
-0.00144824 -0.171931 0.100944
0.0240872 -0.229044 0.102958
0.0594075 -0.312711 0.168166
0.119506 -0.46677 0.288462
0.110544 -0.41901 0.186993
0.0608123 -0.255425 -0.0823441
-0.292072 0.375709 0.145219
-0.286344 0.423245 -0.0758358
-0.252727 0.386211 -0.193419
-0.180743 0.266763 -0.269369
-0.00922763 -0.220795 0.282589
-0.0115087 -0.179104 0.159016
0.0382032 -0.294221 0.210164
0.0389416 -0.265494 0.126527
0.0773077 -0.351049 0.161508
0.0887859 -0.374966 0.119218
0.0382076 -0.188239 -0.181565
-0.274911 0.319391 0.201703
-0.178827 0.127218 0.200598
-0.0965591 -0.0408113 0.247303
-0.0482187 -0.120925 0.20853
-0.0525736 -0.102379 0.133887
-0.020403 -0.171565 0.161444
0.00172051 -0.190422 0.0664919
0.0765463 -0.388811 0.254856
0.0392198 -0.241087 -0.0216136
0.108914 -0.428836 0.197704
0.0485415 -0.240165 -0.11584
-0.297801 0.420402 -0.0534336
-0.14561 0.0594118 0.185082
-0.0766006 -0.0958085 0.270687
-0.0425886 -0.12045 0.121428
0.0107511 -0.268623 0.278344
0.00594304 -0.218385 0.116141
0.0596459 -0.359986 0.258951
-0.0569489 0.0129947 -0.297146
0.0949563 -0.430821 0.25728
0.0949139 -0.399935 0.154437
-0.311131 0.394198 0.121806
-0.271322 0.295344 0.214667
-0.196211 0.147801 0.211024
-0.103111 -0.0431562 0.247526
-0.00914367 -0.240321 0.291444
-0.0312068 -0.148422 0.0942017
0.000921893 -0.204021 0.0780804
0.0393287 -0.299631 0.157755
-0.0569928 -0.00144017 -0.293681
0.0958251 -0.437045 0.268376
0.0471341 -0.265494 -0.0216268
0.0557966 -0.274467 -0.0593945
-0.280869 0.303749 0.208981
-0.291405 0.409435 -0.0950211
-0.107078 -0.0502993 0.250853
-0.00882729 -0.253989 0.294856
0.0140496 -0.291475 0.275699
-0.0917672 0.0614893 -0.297936
0.0225944 -0.259612 0.110642
0.107024 -0.467553 0.266915
0.0401208 -0.241942 -0.118511
-0.316253 0.410074 0.0244047
-0.278276 0.391046 -0.166144
-0.124297 -0.0110278 0.209064
-0.180578 0.227946 -0.291706
0.000528857 -0.247108 0.186621
-0.00332859 -0.211073 0.0829936
-0.0742842 0.0149233 -0.286509
0.0854323 -0.449588 0.282744
0.0817849 -0.404681 0.152997
0.0341607 -0.222046 -0.152009
-0.315557 0.40982 -0.000871914
-0.162272 0.0580443 0.194663
-0.210999 0.275574 -0.269316
-0.0208791 -0.209891 0.164615
-0.109692 0.0868776 -0.303169
-0.10139 0.0645967 -0.301063
0.0441234 -0.341565 0.186237
-0.0178035 -0.111477 -0.247618
0.0397964 -0.266993 -0.0821358
-0.321007 0.404029 0.0293007
-0.296409 0.396397 -0.12386
-0.103192 -0.0853456 0.266942
-0.043693 -0.215158 0.300162
-0.0500894 -0.143853 0.121616
0.0238326 -0.337503 0.273315
0.0486723 -0.380256 0.270971
-0.0400989 -0.0627647 -0.271835
-0.0193428 -0.117023 -0.245062
0.0351834 -0.26579 -0.0871829
-0.323464 0.401571 0.0419285
-0.169074 0.0539465 0.198662
-0.126181 -0.0408481 0.236766
-0.186519 0.219491 -0.296724
-0.144478 0.134994 -0.31261
0.0105747 -0.272799 0.140177
-0.0011506 -0.236294 0.0419881
0.0921405 -0.456872 0.225141
0.0150562 -0.202079 -0.179393
-0.285442 0.268673 0.217862
-0.201605 0.103331 0.213398
-0.193812 0.22667 -0.290277
-0.147714 0.141129 -0.312425
-0.101433 0.0454565 -0.295886
-0.0637388 -0.0266287 -0.282099
0.0657681 -0.390998 0.12601
-0.0174118 -0.133559 -0.232175
0.0329619 -0.274577 -0.0771782
-0.329917 0.389029 0.0680901
-0.229945 0.156024 0.228729
-0.283763 0.369571 -0.189415
-0.124561 -0.0635437 0.256865
-0.0205134 -0.278626 0.308586
-0.0358732 -0.198625 0.100654
-0.109583 0.0513552 -0.299768
-0.00313137 -0.253369 0.0666418
-0.0412784 -0.0847713 -0.269962
0.0362571 -0.301158 -0.0368449
-0.298141 0.277575 0.210606
-0.230808 0.15228 0.228573
-0.133847 -0.0492074 0.23977
-0.0804926 -0.163847 0.287954
-0.0231905 -0.279483 0.310692
0.00742491 -0.312612 0.204627
0.0136384 -0.311356 0.132473
0.0765151 -0.469619 0.259346
0.0517223 -0.362051 0.0764773
-0.336889 0.38177 0.0959957
-0.304965 0.290086 0.204913
-0.309048 0.385015 -0.125065
-0.160525 0.0175311 0.175721
-0.233514 0.268258 -0.271797
-0.0505302 -0.23696 0.312856
-0.00687044 -0.317492 0.29727
-0.0153123 -0.270701 0.180421
-0.035078 -0.190502 0.0193723
-0.00941246 -0.261923 0.0547435
-0.0313755 -0.126217 -0.244842
0.0357182 -0.323725 0.00269629
0.00906761 -0.238728 -0.143536
-0.320851 0.387145 -0.0682365
-0.132517 -0.0708264 0.260829
-0.199741 0.209168 -0.302569
-0.0459709 -0.208388 0.11109
0.0293723 -0.391929 0.289337
-0.00958913 -0.252678 0.046907
-0.0661319 -0.0591298 -0.278514
0.0321038 -0.323491 0.000620552
-0.338054 0.362455 0.128029
-0.331464 0.388172 -0.0307423
-0.153492 -0.0254551 0.200028
-0.0787419 -0.197331 0.297909
-0.0355775 -0.24405 0.159416
-0.00989485 -0.279291 0.110245
0.0536611 -0.466428 0.333827
0.0600843 -0.431033 0.171241
-0.00284357 -0.216011 -0.171794
-0.308683 0.265707 0.207164
-0.24722 0.141829 0.233735
-0.191733 0.0446687 0.210109
-0.232325 0.250427 -0.278985
-0.041232 -0.233339 0.135728
-0.121073 0.0414058 -0.300137
0.0113187 -0.338584 0.172271
0.0517606 -0.418086 0.150776
-0.0150985 -0.199271 -0.189616
-0.338721 0.375936 0.0291153
-0.325827 0.379088 -0.0805334
-0.17362 0.00306145 0.173297
-0.0455818 -0.283627 0.324994
-0.132987 0.0588796 -0.306654
-0.032648 -0.230224 0.0291544
-0.0952458 -0.0182403 -0.295935
0.0299713 -0.371844 0.0795044
-0.0252889 -0.186238 -0.202921
-0.344996 0.352206 0.122018
-0.274867 0.187082 0.23331
-0.186509 0.017566 0.192682
-0.099355 -0.175051 0.286764
-0.0534762 -0.276006 0.326256
-0.151823 0.0843081 -0.308167
-0.0078189 -0.327659 0.18526
-0.0885363 -0.0464662 -0.285441
-0.0347018 -0.167699 -0.216411
-0.346106 0.341831 0.130486
-0.215641 0.0656849 0.2136
-0.136638 -0.102652 0.268453
-0.0351619 -0.318793 0.322745
-0.00772248 -0.365496 0.306451
-0.0581016 -0.197201 0.0366116
-0.0191097 -0.28485 0.0960619
-0.0402519 -0.163276 -0.219841
-0.344244 0.353115 0.0685302
-0.244254 0.108267 0.223909
-0.107844 -0.174882 0.284161
-0.163982 0.0964693 -0.310618
0.0194089 -0.444098 0.340889
-0.0210733 -0.304075 0.12267
0.040655 -0.469596 0.275747
0.0147906 -0.354648 0.0511069
-0.022326 -0.225506 -0.167779
-0.324966 0.268761 0.194544
-0.302476 0.222328 0.217015
-0.254414 0.120029 0.226162
-0.274639 0.283956 -0.249637
-0.0418681 -0.328056 0.329549
-0.00427382 -0.388323 0.317847
-0.0311291 -0.283617 0.0970611
0.041484 -0.484469 0.31675
-0.0420354 -0.178885 -0.212246
-0.347824 0.355769 0.00786878
-0.197242 0.0143498 0.191591
-0.221579 0.190064 -0.296637
-0.154732 0.054384 -0.309369
-0.140284 0.0338056 -0.304601
0.0402917 -0.484174 0.314891
0.00742201 -0.350409 0.0426947
-0.00947581 -0.277458 -0.102575
-0.343654 0.358721 -0.0738041
-0.226056 0.0535833 0.207952
-0.175636 -0.0457142 0.202419
-0.0898993 -0.238559 0.310814
-0.188571 0.117217 -0.314699
-0.00427251 -0.415475 0.328404
0.0302187 -0.480547 0.3468
0.0341248 -0.45884 0.205101
-0.00452296 -0.31425 -0.0357938
-0.347846 0.295779 0.17673
-0.282987 0.157202 0.227434
-0.247203 0.0883248 0.212563
-0.283226 0.276191 -0.246615
-0.0537816 -0.32779 0.340436
-0.183562 0.0942599 -0.31436
-0.00215011 -0.427766 0.331497
-0.047895 -0.272636 0.101531
0.0304708 -0.462546 0.230385
0.0308684 -0.446369 0.176548
-0.355486 0.319585 0.111138
-0.352641 0.34178 -0.00231347
-0.214449 0.0112854 0.184783
-0.0709323 -0.306054 0.348978
-0.074581 -0.213028 0.0694655
-0.0551551 -0.250922 0.0508786
-0.0772132 -0.131103 -0.26022
-0.0152381 -0.314118 -0.0401652
-0.301999 0.178413 0.215312
-0.241028 0.0633775 0.199886
-0.185587 -0.0408524 0.186242
-0.0619146 -0.325972 0.347053
-0.183624 0.0883736 -0.314927
-0.0512868 -0.295401 0.133808
-0.140766 -0.00573327 -0.296446
0.0214767 -0.479484 0.311132
-0.07833 -0.137117 -0.2571
-0.0400469 -0.24405 -0.145367
-0.355833 0.31548 0.0786115
-0.296935 0.162038 0.215971
-0.299974 0.282114 -0.231767
-0.252623 0.200071 -0.277057
-0.179334 0.0678383 -0.313788
-0.0464419 -0.310764 0.157855
0.0153317 -0.463377 0.256201
0.0011369 -0.397322 0.104017
-0.359884 0.297232 0.1418
-0.356638 0.323265 0.0267211
-0.241601 0.0443271 0.196159
-0.19401 -0.0381278 0.176504
-0.0952872 -0.276851 0.341175
-0.0546037 -0.352933 0.315087
-0.00971785 -0.443799 0.351117
-0.0474154 -0.306376 0.120806
-0.00530282 -0.393648 0.09793
-0.0694321 -0.173657 -0.224656
-0.355738 0.27044 0.165238
-0.358836 0.332847 -0.0400488
-0.232313 0.02185 0.192842
-0.0892815 -0.29488 0.355008
-0.177233 0.0466341 -0.312275
-0.138417 -0.0329784 -0.296429
0.0106999 -0.45605 0.201394
-0.0629574 -0.203835 -0.203967
-0.325633 0.195102 0.190109
-0.257366 0.0642078 0.187845
-0.299609 0.260874 -0.242224
-0.11175 -0.250443 0.305471
-0.052272 -0.370949 0.294952
-0.157563 -0.000424103 -0.301669
-0.00878229 -0.396635 0.101717
-0.056211 -0.242596 -0.145099
-0.336983 0.217579 0.176106
-0.360683 0.318881 -0.0229425
-0.342462 0.314594 -0.166661
-0.164292 -0.151295 0.26579
-0.0689417 -0.373572 0.397122
-0.0295228 -0.438014 0.364928
-0.00125944 -0.462641 0.259109
-0.0322892 -0.339021 0.00986057
-0.0482394 -0.27425 -0.104261
-0.356232 0.252446 0.164844
-0.294397 0.122579 0.205072
-0.22118 -0.0111299 0.159514
-0.150449 -0.183032 0.263081
-0.0788443 -0.355419 0.38525
-0.0344063 -0.427258 0.324011
-0.021813 -0.385557 0.0862992
-0.0497743 -0.281916 -0.0954341
-0.33613 0.204811 0.175693
-0.364853 0.315345 -0.0342315
-0.263994 0.0612043 0.181097
-0.23048 -0.00941332 0.157517
-0.269171 0.188227 -0.266985
-0.0751218 -0.356732 0.329478
-0.0149623 -0.462142 0.307439
-0.0402268 -0.33002 -0.0116675
-0.352859 0.227986 0.161317
-0.308324 0.13367 0.193488
-0.255772 0.0315329 0.181309
-0.30656 0.247312 -0.242618
-0.134644 -0.229047 0.288323
-0.08227 -0.363305 0.397212
-0.0735842 -0.357034 0.297275
-0.0350827 -0.375276 0.0741923
-0.0649021 -0.26965 -0.101902
-0.368071 0.266955 0.112093
-0.302425 0.11573 0.192007
-0.332077 0.273229 -0.207926
-0.190348 -0.123089 0.260052
-0.121818 -0.272637 0.321406
-0.0572725 -0.408183 0.33988
-0.0194405 -0.461051 0.27801
-0.024137 -0.424453 0.139666
-0.0612848 -0.287184 -0.0852179
-0.368975 0.267298 0.07804
-0.359008 0.310985 -0.143381
-0.233007 -0.0225596 0.153808
-0.26955 0.161639 -0.273613
-0.212443 0.0613787 -0.310991
-0.0281712 -0.456855 0.27602
-0.0567293 -0.299935 -0.0733611
-0.357437 0.209629 0.13598
-0.272752 0.0483994 0.170081
-0.222781 -0.0506097 0.164187
-0.10868 -0.352387 0.418989
-0.223558 0.0762169 -0.307355
-0.0317241 -0.454716 0.275189
-0.0227658 -0.450348 0.190586
-0.0551202 -0.34623 0.023815
-0.0643318 -0.299527 -0.0703453
-0.371123 0.253321 0.0833569
-0.359979 0.292423 -0.156986
-0.208128 -0.103853 0.23106
-0.133021 -0.28779 0.341407
-0.0789248 -0.404807 0.40524
-0.0534652 -0.436873 0.370104
-0.0381208 -0.409004 0.119344
-0.102117 -0.191049 -0.227684
-0.372269 0.260336 0.0379908
-0.318606 0.123065 0.177409
-0.284668 0.0507666 0.160557
-0.133153 -0.30171 0.37303
-0.0809416 -0.405462 0.40665
-0.192099 -0.00884688 -0.294578
-0.0946318 -0.250444 -0.116043
-0.074103 -0.297114 -0.0675948
-0.370777 0.220807 0.113702
-0.374465 0.256561 0.0296309
-0.279919 0.0360673 0.16176
-0.138398 -0.295024 0.357059
-0.103426 -0.38264 0.439459
-0.0456137 -0.44579 0.251533
-0.0497397 -0.394355 0.10131
-0.099838 -0.239294 -0.135856
-0.346512 0.161156 0.149349
-0.301458 0.0754953 0.156046
-0.305402 0.186797 -0.241732
-0.11276 -0.374936 0.438939
-0.0818234 -0.388584 0.296781
-0.0374205 -0.446432 0.185027
-0.0837515 -0.29346 -0.0658954
-0.102296 -0.217661 -0.205632
-0.382755 0.278455 -0.0478896
-0.226405 -0.0910962 0.199923
-0.139046 -0.315073 0.394855
-0.0959487 -0.412553 0.428826
-0.217607 0.0173561 -0.2975
-0.161705 -0.0914327 -0.287732
-0.110621 -0.234639 -0.150589
-0.11288 -0.201376 -0.223244
-0.321617 0.0979501 0.148784
-0.263973 -0.0152501 0.146543
-0.199179 -0.164637 0.252103
-0.132636 -0.346862 0.419043
-0.0773795 -0.425305 0.343626
-0.0728259 -0.354041 0.0407215
-0.111155 -0.232959 -0.165433
-0.379538 0.231371 0.0390141
-0.386125 0.283193 -0.0758221
-0.333656 0.21352 -0.21816
-0.150841 -0.296397 0.345018
-0.257819 0.084061 -0.291595
-0.0771528 -0.431081 0.310544
-0.0691438 -0.434845 0.263847
-0.0691284 -0.386035 0.0926096
-0.118185 -0.212505 -0.213978
-0.386692 0.276847 -0.0924061
-0.233138 -0.107197 0.205283
-0.153709 -0.298218 0.343306
-0.109837 -0.404789 0.422635
-0.0755771 -0.429246 0.255304
-0.172383 -0.0956716 -0.28384
-0.155733 -0.127646 -0.276301
-0.116992 -0.228577 -0.191774
-0.387123 0.269696 -0.101473
-0.233567 -0.1156 0.211815
-0.184589 -0.218937 0.243903
-0.118747 -0.393396 0.433948
-0.0983674 -0.41292 0.346804
-0.0725326 -0.430528 0.216341
-0.101905 -0.305424 -0.0373948
-0.121001 -0.249558 -0.129864
-0.375339 0.187833 0.0797255
-0.388828 0.2638 -0.0989502
-0.3541 0.220242 -0.193929
-0.243914 -0.0943627 0.185733
-0.159822 -0.298366 0.324151
-0.0985567 -0.415586 0.313953
-0.0727285 -0.429884 0.201644
-0.171771 -0.119019 -0.277433
-0.114681 -0.265964 -0.103537
-0.37917 0.196896 0.0559402
-0.381209 0.255597 -0.132363
-0.257892 -0.064735 0.145312
-0.324771 0.165402 -0.223774
-0.159497 -0.307567 0.357154
-0.128141 -0.379559 0.374058
-0.240277 0.0106237 -0.284945
-0.194656 -0.0764779 -0.27874
-0.0933593 -0.362593 0.0639179
-0.371438 0.162187 0.094696
-0.341783 0.0983604 0.129377
-0.299981 0.0104738 0.133813
-0.162564 -0.314419 0.373637
-0.179052 -0.268848 0.270585
-0.273628 0.0720797 -0.282655
-0.236381 -0.00164207 -0.281732
-0.0945231 -0.41374 0.224574
-0.0927386 -0.383097 0.096137
-0.169502 -0.138962 -0.264719
-0.385385 0.207145 0.0207875
-0.352803 0.111338 0.120269
-0.298908 0.00206897 0.126687
-0.314273 0.130034 -0.242118
-0.137993 -0.37077 0.366711
-0.114825 -0.392471 0.269306
-0.10181 -0.406181 0.235236
-0.110478 -0.346114 0.0442619
-0.156481 -0.17223 -0.246583
-0.389647 0.215031 -0.0194268
-0.313038 0.0265916 0.126641
-0.253927 -0.106892 0.183527
-0.324236 0.139115 -0.228623
-0.2958 0.0946126 -0.264487
-0.124221 -0.390099 0.28921
-0.22112 -0.0554002 -0.269544
-0.110153 -0.359904 0.0692055
-0.127594 -0.282141 -0.0836859
-0.368619 0.134468 0.0871956
-0.347237 0.0901005 0.112601
-0.350863 0.176489 -0.190947
-0.155459 -0.35075 0.341663
-0.135615 -0.381729 0.334884
-0.130398 -0.381149 0.274872
-0.116969 -0.393684 0.228925
-0.122177 -0.34026 0.0461748
-0.172673 -0.158125 -0.251772
-0.39479 0.215504 -0.0584543
-0.386087 0.222873 -0.138322
-0.30326 -0.00311045 0.115556
-0.257137 -0.115518 0.183075
-0.159637 -0.346184 0.343089
-0.248757 -0.00864478 -0.272334
-0.113821 -0.400826 0.189365
-0.133422 -0.299121 -0.0543858
-0.370026 0.129992 0.0775278
-0.392967 0.222233 -0.109666
-0.295064 -0.0307819 0.110499
-0.333036 0.133787 -0.220763
-0.146053 -0.36885 0.274802
-0.121648 -0.395019 0.19499
-0.125903 -0.344523 0.0581376
-0.179779 -0.162736 -0.247577
-0.153853 -0.241202 -0.170568
-0.392189 0.193604 -0.0357238
-0.377904 0.195405 -0.154455
-0.241047 -0.165614 0.213198
-0.157706 -0.356343 0.285692
-0.253094 -0.0271769 -0.260979
-0.15221 -0.254427 -0.147764
-0.391266 0.175503 -0.0245236
-0.342009 0.0492648 0.0907787
-0.35731 0.157568 -0.182218
-0.20793 -0.252948 0.23279
-0.169994 -0.339856 0.292293
-0.159637 -0.349935 0.246585
-0.135428 -0.38244 0.193228
-0.141853 -0.328492 0.0402382
-0.194909 -0.144047 -0.256096
-0.164201 -0.215201 -0.210324
-0.392001 0.172573 -0.0393315
-0.379593 0.172159 -0.138616
-0.229057 -0.20204 0.214126
-0.177196 -0.327912 0.268663
-0.158612 -0.351152 0.223402
-0.144366 -0.368641 0.181947
-0.138805 -0.35581 0.0993716
-0.152477 -0.301061 -0.0173859
-0.153986 -0.265978 -0.128931
-0.370769 0.102724 0.0559114
-0.358824 0.139837 -0.177162
-0.339366 0.113752 -0.217198
-0.185171 -0.31628 0.272597
-0.260581 -0.0313205 -0.254917
-0.231658 -0.0880294 -0.257135
-0.150336 -0.311563 0.0135687
-0.169655 -0.22395 -0.199841
-0.39042 0.150028 -0.016397
-0.391868 0.178489 -0.096795
-0.329328 0.00572257 0.079904
-0.349817 0.118807 -0.198317
-0.215504 -0.251061 0.222552
-0.279999 0.00214855 -0.260649
-0.153762 -0.348207 0.113724
-0.185382 -0.191419 -0.226087
-0.390591 0.151239 -0.04323
-0.389872 0.165215 -0.0920129
-0.386533 0.145288 -0.0745284
-0.332861 0.00499003 0.0722593
-0.359523 0.120809 -0.175771
-0.269003 -0.126781 0.121392
-0.34104 0.0945272 -0.213713
-0.206548 -0.279074 0.222046
-0.208285 -0.267255 0.177724
-0.178473 -0.329392 0.211848
-0.263782 -0.0491857 -0.244586
-0.157259 -0.338054 0.0923003
-0.168056 -0.291532 -0.0364641
-0.163658 -0.27637 -0.109255
-0.387509 0.142621 -0.0556031
-0.34718 0.0293155 0.0597752
-0.372109 0.132184 -0.144963
-0.261351 -0.166426 0.173623
-0.252274 -0.18552 0.136067
-0.201986 -0.28929 0.206519
-0.17129 -0.33617 0.133314
-0.242474 -0.093736 -0.248207
-0.36187 0.058689 0.0476433
-0.376684 0.131759 -0.132476
-0.363783 0.114844 -0.166847
-0.346576 0.0904053 -0.203345
-0.233917 -0.232448 0.202804
-0.203018 -0.291764 0.167233
-0.17872 -0.324396 0.115477
-0.210195 -0.169465 -0.231201
-0.386742 0.116797 -0.0455204
-0.331344 -0.0149334 0.0598896
-0.288952 -0.103864 0.0968547
-0.25689 -0.184377 0.126196
-0.235842 -0.235292 0.178744
-0.288816 -0.0209417 -0.237447
-0.188466 -0.284742 0.0117592
-0.196679 -0.216964 -0.197134
-0.386471 0.129029 -0.0845098
-0.377005 0.117138 -0.127418
-0.300697 -0.0891907 0.0806349
-0.250768 -0.195764 0.136571
-0.315036 0.0215863 -0.239719
-0.192334 -0.306997 0.102144
-0.189507 -0.280885 -0.00398503
-0.181053 -0.275844 -0.100845
-0.381445 0.0902377 -0.0356941
-0.379341 0.0826603 -0.0336826
-0.322484 -0.0496985 0.0561428
-0.301585 -0.0943769 0.0768539
-0.27109 -0.170788 0.10721
-0.307158 0.00523264 -0.239182
-0.191269 -0.324035 0.146858
-0.244902 -0.126808 -0.236197
-0.185533 -0.262044 -0.135527
-0.37158 0.0946576 -0.148876
-0.357154 0.0716213 -0.186126
-0.263547 -0.183289 0.115489
-0.202942 -0.309168 0.142871
-0.264835 -0.092856 -0.228428
-0.195964 -0.277344 -0.0546199
-0.207012 -0.221536 -0.187133
-0.38042 0.0792675 -0.0593906
-0.373993 0.0881006 -0.138748
-0.289267 -0.133513 0.0843032
-0.241031 -0.243508 0.139984
-0.210126 -0.296944 0.102224
-0.195757 -0.279489 -0.0665738
-0.381715 0.0788915 -0.0701421
-0.319607 -0.0741198 0.0510216
-0.274987 -0.173101 0.0988353
-0.286815 -0.0756103 -0.211455
-0.231389 -0.177866 -0.212176
-0.380812 0.0770609 -0.102577
-0.362848 0.0566785 -0.170184
-0.329458 0.00112139 -0.209282
-0.217619 -0.276461 0.025418
-0.207791 -0.26307 -0.119173
-0.37053 0.0285917 -0.0418726
-0.309232 -0.114857 0.0611564
-0.249924 -0.243652 0.12634
-0.233207 -0.271165 0.0857301
-0.227215 -0.270326 0.0502186
-0.211362 -0.272923 -0.0746959
-0.378725 0.0446224 -0.0694678
-0.349544 -0.0237379 -0.0182066
-0.278775 -0.193581 0.0878055
-0.332774 -0.00689954 -0.197842
-0.240911 -0.260201 0.0798334
-0.260267 -0.149646 -0.211454
-0.377846 0.0456424 -0.103754
-0.34562 -0.0367278 -0.0311245
-0.328398 -0.0821635 0.0172785
-0.284911 -0.190782 0.0758664
-0.308805 -0.0702683 -0.185167
-0.290825 -0.105109 -0.193825
-0.251405 -0.16474 -0.210904
-0.377925 0.0388419 -0.094655
-0.342394 -0.0466857 -0.0344309
-0.339999 -0.0541457 -0.0432453
-0.351739 0.010465 -0.17805
-0.345596 -0.00528969 -0.175653
-0.255914 -0.246996 0.0705095
-0.239847 -0.263688 0.0248982
-0.247239 -0.199618 -0.179265
-0.221986 -0.259689 -0.11871
-0.363895 -0.00628 -0.063444
-0.350722 -0.00490467 -0.163524
-0.334488 -0.0438728 -0.160205
-0.287923 -0.124886 -0.190064
-0.230308 -0.25721 -0.119021
-0.336023 -0.0766492 -0.0374459
-0.329804 -0.0587215 -0.157716
-0.249522 -0.255931 -0.0122053
-0.371971 0.00200578 -0.0803644
-0.325758 -0.113249 0.0174642
-0.327073 -0.11097 -0.00993958
-0.270792 -0.237643 0.0525981
-0.257381 -0.251342 0.0176085
-0.261212 -0.190053 -0.178228
-0.361854 -0.0252855 -0.0800277
-0.362705 -0.0148425 -0.126788
-0.351178 -0.0299045 -0.143525
-0.315804 -0.144016 0.00854792
-0.295695 -0.189839 0.0494839
-0.335672 -0.066012 -0.138794
-0.285473 -0.219608 0.0702185
-0.28231 -0.223844 0.0639468
-0.277798 -0.228274 0.0414985
-0.265022 -0.243331 0.00552304
-0.289211 -0.150964 -0.17052
-0.278012 -0.173955 -0.173449
-0.33937 -0.0739465 -0.104683
-0.322116 -0.131594 -0.0353001
-0.295775 -0.192454 0.0118997
-0.301374 -0.137711 -0.154091
-0.25845 -0.253464 -0.0416963
-0.322873 -0.13091 -0.0522792
-0.284861 -0.21663 -0.011874
-0.266052 -0.217226 -0.137364
-0.330278 -0.106973 -0.104734
-0.323067 -0.113116 -0.12378
-0.273138 -0.238601 -0.0447422
-0.330545 -0.114652 -0.0956232
-0.325191 -0.127488 -0.102432
-0.318486 -0.148285 -0.0826707
-0.316109 -0.143606 -0.115723
-0.299765 -0.166999 -0.13818
-0.284292 -0.190121 -0.149303
-0.290945 -0.196937 -0.12528
-0.313127 -0.16403 -0.0968074
-0.301662 -0.204197 -0.0521099
-0.293384 -0.217478 -0.0468381
-0.291479 -0.222468 -0.0533001
-0.293933 -0.20439 -0.103596
-0.287513 -0.230672 -0.0787895
0.286912 0.0322029 -0.0859586
0.292193 0.0118984 -0.0847867
0.284662 0.0280843 -0.0969365
0.252844 0.0634465 -0.0530145
0.290443 -0.00507985 -0.0808436
0.265351 0.0183614 -0.030755
0.234275 0.0675061 -0.011925
0.25289 0.0581187 -0.103964
0.248547 0.0618463 -0.102487
0.219225 0.0812086 -0.0135564
0.138635 0.276882 -0.161404
0.271616 -0.0185037 -0.0549106
0.115128 0.306178 -0.18681
0.231584 0.0358943 -0.0181064
0.125127 0.276984 -0.148028
0.250688 -0.00219835 -0.0461952
0.211748 0.0780217 -0.0847579
0.1108 0.299494 -0.216031
0.157984 0.202355 -0.199931
0.240059 0.0194348 -0.130891
0.136514 0.235162 -0.167623
0.19644 0.0770133 -0.0368888
0.0988875 0.300695 -0.172228
0.110856 0.253359 -0.121401
0.155937 0.189621 -0.191681
0.249064 -0.0178553 -0.101578
0.122004 0.225579 -0.133245
0.191096 0.044098 0.0247292
0.215451 0.00718217 -0.00926893
0.231949 -0.022094 -0.0137624
0.108812 0.243086 -0.117455
0.172148 0.0824345 0.00459502
0.187571 0.050491 0.0237316
0.15462 0.170974 -0.194245
0.230478 -0.0328772 0.00931303
0.235833 -0.0217237 -0.0737182
0.149039 0.102351 0.08169
0.167186 0.0709776 0.0578477
0.175635 0.0623981 0.0424742
0.184755 0.0628562 -0.0269361
0.199959 0.0302913 -0.00366781
0.212693 0.0252959 -0.119072
0.146495 0.104885 0.0753139
0.15022 0.105947 0.0366573
0.133456 0.178653 -0.130085
0.149882 0.171068 -0.223321
0.235307 -0.0484759 -0.0322057
0.10881 0.210027 -0.110321
0.185718 0.0190082 0.0613305
0.237613 -0.0604166 -0.00741558
0.068711 0.308643 -0.189621
0.123995 0.179445 -0.113965
0.147771 0.159076 -0.216016
0.0737321 0.275653 -0.134174
0.176274 0.0194759 0.0669787
0.194008 0.00431567 0.0220469
0.217753 -0.046905 0.0108934
0.233596 -0.0649819 -0.0341506
0.123871 0.172055 -0.114384
0.161163 0.0692736 -0.0279075
0.173703 0.0594128 -0.0913942
0.227396 -0.0352136 -0.110692
0.0591491 0.308386 -0.205288
0.142436 0.0858791 0.0197379
0.17095 0.0145104 0.0746143
0.130272 0.140207 -0.122446
0.140162 0.15559 -0.21448
0.0654311 0.269497 -0.142389
0.100638 0.227426 -0.221107
0.177961 -0.00479343 0.0654144
0.193565 0.0206662 -0.127919
0.081989 0.26143 -0.224502
0.146423 0.069157 -0.000112501
0.153974 0.0587418 -0.0134862
0.185561 -0.0236637 0.043284
0.217116 -0.0652855 -0.0355791
0.225133 -0.0777772 -0.039067
0.240771 -0.106806 -0.0310986
0.13893 0.0576071 0.0493619
0.122401 0.148943 -0.173117
0.181362 -0.0193867 0.0102346
0.0888958 0.194329 -0.0969977
0.123145 0.135217 -0.143831
0.182708 0.000104263 -0.109855
0.0821155 0.201866 -0.101994
0.0755109 0.241956 -0.245535
0.181773 -0.0226266 -0.0161717
0.0540157 0.277899 -0.234065
0.141606 0.064284 -0.0948742
0.194617 -0.0375139 -0.0796838
0.0793663 0.186513 -0.0977532
0.127404 0.0777089 -0.0601745
0.111474 0.135967 -0.186539
0.167713 0.0199931 -0.116817
0.201897 -0.0785869 -0.0341667
0.0417294 0.261599 -0.153652
0.125434 0.0495613 0.047348
0.106082 0.152463 -0.207583
