ply
format ascii 1.0
comment Created by Open3D
element vertex 1525
property double x
property double y
property double z
end_header
-0.0315594 -0.378234 0.403264
-0.0243592 -0.35122 0.410189
-0.020721 -0.322047 0.425993
-0.0417897 -0.367847 0.409949
-0.0220958 -0.35232 0.396008
-0.043494 -0.410224 0.373349
-0.0203535 -0.342259 0.397562
-0.0355865 -0.420668 0.347824
-0.0525272 -0.42126 0.355325
-0.00862906 -0.288274 0.414328
-0.00854902 -0.289782 0.404971
-0.0214692 -0.35937 0.361042
-0.061124 -0.410162 0.361282
-0.0354709 -0.432197 0.314241
-0.0606959 -0.36478 0.389347
-0.0487583 -0.30852 0.419266
-0.0334879 -0.426631 0.306243
-0.0468795 -0.292225 0.416394
-0.0237825 -0.383994 0.326288
-0.0628887 -0.436311 0.323316
0.00225545 -0.228756 0.413684
-0.0531404 -0.301873 0.407764
-0.0231993 -0.38551 0.314539
-0.0492958 -0.452719 0.286128
-0.055923 -0.308249 0.40131
-0.0673046 -0.34896 0.382824
-0.027007 -0.401116 0.295765
-0.0336906 -0.246097 0.42073
-0.0684116 -0.443162 0.301762
-0.00409805 -0.238519 0.391577
-0.0358804 -0.439519 0.258917
-0.0448566 -0.257571 0.411333
-0.0249709 -0.389136 0.280793
0.00996595 -0.152644 0.425892
-0.0542862 -0.266692 0.401999
-0.00626638 -0.32738 0.309816
-0.0212664 -0.378539 0.280009
0.0052988 -0.195499 0.39399
-0.0564455 -0.267176 0.399882
0.000737202 -0.308156 0.305711
-0.0742546 -0.455219 0.264162
0.00365726 -0.197327 0.38572
-0.0100903 -0.347672 0.28078
-0.0733556 -0.457703 0.259001
0.0032607 -0.193562 0.378191
-0.059868 -0.255881 0.397486
-0.00703595 -0.342241 0.269736
-0.0749539 -0.458818 0.25058
0.00767232 -0.164494 0.388576
-0.0968429 -0.423947 0.29012
-0.0903534 -0.319212 0.365443
-0.0994436 -0.381793 0.327509
0.0036594 -0.128181 0.411075
0.0124303 -0.21695 0.335772
0.0180462 -0.251827 0.301544
0.010324 -0.299364 0.27071
-0.0528735 -0.470136 0.200354
-0.0196173 -0.151034 0.412819
-0.0751206 -0.254102 0.385168
0.0158622 -0.288179 0.26656
-0.105935 -0.34809 0.341784
0.0114699 -0.11908 0.394448
0.0250231 -0.176872 0.334422
0.0339885 -0.229177 0.284277
-0.0966027 -0.300092 0.36594
-0.0357506 -0.439811 0.187973
0.0218298 -0.151867 0.351994
0.0279842 -0.174175 0.330982
0.0286375 -0.261899 0.257737
0.00731111 -0.316427 0.237298
-0.113513 -0.389874 0.303811
0.0172096 -0.0918387 0.399844
0.0133966 -0.129248 0.376208
0.0364128 -0.154667 0.326326
-0.101312 -0.287023 0.363482
0.0153539 -0.30283 0.232996
-0.0341382 -0.435808 0.177275
-0.0414202 -0.460943 0.161617
0.0247631 -0.125894 0.358678
-0.0468887 -0.173592 0.393152
0.0479453 -0.175207 0.292633
-0.0919435 -0.255316 0.37083
-0.119854 -0.390661 0.294551
-0.0700056 -0.472706 0.178164
-0.0261542 -0.127217 0.399063
0.054279 -0.161823 0.289529
0.0469948 -0.230779 0.240125
0.0340256 -0.268348 0.224219
-0.121665 -0.414367 0.268382
-0.0641227 -0.474881 0.160869
0.0314521 -0.0982915 0.360558
0.0517943 -0.127249 0.313686
-0.0523853 -0.17259 0.387492
0.0522503 -0.222911 0.232798
0.0196161 -0.300318 0.208359
-0.00896846 -0.355805 0.192702
-0.0307444 -0.423149 0.162999
-0.00908985 -0.0915023 0.396815
0.0469737 -0.106168 0.331294
0.064192 -0.138372 0.286235
0.0611168 -0.175672 0.260652
0.0539178 -0.225097 0.22284
-0.00872738 -0.355527 0.185444
0.0361371 -0.0484424 0.378127
0.0507217 -0.0765617 0.341209
0.0613226 -0.0920557 0.313477
-0.0514553 -0.157513 0.386319
-0.092445 -0.220928 0.369327
0.0480979 -0.249344 0.20393
0.0389798 -0.0535562 0.36443
0.0759937 -0.155309 0.243302
0.0606411 -0.20805 0.221605
-0.114021 -0.445514 0.213246
0.0821586 -0.120589 0.257782
0.074847 -0.171613 0.224841
-0.0088471 -0.355926 0.16495
0.0339367 -0.0233071 0.381969
0.082933 -0.139823 0.237521
0.0623393 -0.225633 0.187026
0.0258099 -0.301225 0.163597
-0.139517 -0.396753 0.260937
-0.0323509 -0.436581 0.115229
0.0415211 -0.0125024 0.370704
0.0424709 -0.0316644 0.358814
-0.142443 -0.329376 0.306459
-0.137325 -0.417798 0.231225
0.021329 -0.0061911 0.385885
0.0821569 -0.0756072 0.275124
0.0890763 -0.0912332 0.249823
0.0767571 -0.17816 0.199263
-0.130079 -0.282485 0.329376
-0.0221367 -0.399974 0.123168
-0.0372553 -0.462138 0.0916441
0.00662232 -0.03167 0.384068
-0.0671525 -0.143645 0.370776
0.081721 -0.18496 0.177347
0.0637216 -0.247627 0.14807
0.0124806 -0.32412 0.137157
-0.0239538 -0.411035 0.110781
0.0493119 -0.0172237 0.33815
-0.0586233 -0.123786 0.371076
0.0839624 -0.161144 0.188211
0.0826307 -0.212907 0.148083
-0.14741 -0.317211 0.303494
0.00412749 -0.337088 0.130838
-0.100612 -0.467918 0.130816
0.0342747 0.0162369 0.378494
-0.0383052 -0.0849229 0.374049
0.0910406 -0.0857882 0.234102
-0.138659 -0.276785 0.321552
-0.153576 -0.374014 0.260261
-0.141968 -0.421376 0.20937
-0.0163011 -0.0443617 0.371147
-0.0726068 -0.125428 0.362567
0.0879234 -0.118868 0.204718
0.0915544 -0.172457 0.153718
-0.151813 -0.403687 0.225286
-0.0312282 -0.440261 0.0712397
0.0345097 0.0325607 0.371893
-0.0137874 -0.0388999 0.371259
0.0914212 -0.0876892 0.221604
0.0768645 -0.234739 0.119219
-0.152024 -0.413086 0.206711
-0.0268174 -0.41678 0.0773317
-0.00449954 -0.0076425 0.369602
0.0897306 -0.0480007 0.242465
0.090163 -0.102718 0.202959
0.0979777 -0.175142 0.13173
0.0896239 -0.212645 0.112842
-0.162368 -0.377841 0.241088
-0.0110606 -0.372255 0.0915685
-0.131464 -0.450072 0.151832
-0.0601158 -0.484867 0.053172
0.0852867 -0.037244 0.253189
0.0909839 -0.127514 0.173322
0.100004 -0.178173 0.122159
-0.162765 -0.309653 0.288317
0.0523655 -0.286587 0.0834183
-0.164003 -0.383764 0.231287
-0.0129689 -0.377273 0.0809786
-0.029026 -0.426653 0.0573438
0.0464912 0.00953123 0.318533
-0.164357 -0.297042 0.291904
-0.167979 -0.368936 0.242936
-0.128355 -0.454543 0.132855
-0.0958501 -0.480259 0.0748883
0.0153639 0.039353 0.365396
0.0527056 0.0111357 0.305279
-0.0521177 -0.0657972 0.359169
0.101404 -0.192198 0.0958946
-0.165353 -0.297505 0.290492
0.0739566 -0.264031 0.0678844
0.0109497 -0.342088 0.0704753
-0.108816 -0.476515 0.089509
0.0647199 0.0865046 0.349446
0.0557493 0.00879513 0.29968
-0.0640185 -0.0800077 0.352479
0.10453 -0.143587 0.125976
-0.14875 -0.238117 0.313581
0.0637028 -0.281209 0.0565821
0.0154356 -0.337396 0.0617707
-0.0155048 -0.38797 0.0506897
-0.0770104 -0.485558 0.0343221
0.113082 0.121275 0.321269
0.11691 0.114562 0.305488
0.0703971 0.0799679 0.333731
0.0506577 0.0423407 0.325196
0.0695028 0.00360413 0.266416
0.0887748 -0.0175019 0.227081
0.0892567 -0.0880257 0.181368
0.107634 -0.179503 0.0833731
0.0823396 -0.261877 0.0486309
0.030305 -0.318946 0.0519932
-0.156202 -0.43815 0.149043
-0.0929281 -0.481772 0.0504002
-0.0576469 -0.48587 0.008816
0.0510995 0.0454466 0.323308
-0.137425 -0.201983 0.318332
-0.1739 -0.286219 0.2851
-0.181406 -0.346992 0.246135
-0.179764 -0.38323 0.208377
-0.00920732 -0.378979 0.0377816
0.0802145 0.122792 0.341351
0.0071645 0.0495596 0.357206
0.0777451 -0.00222459 0.241376
-0.142543 -0.199844 0.313155
0.109947 -0.188975 0.0596782
0.023213 -0.331468 0.0337596
-0.0167031 -0.404435 0.0157702
-0.0938193 -0.481221 0.0366229
0.08014 0.0952111 0.318846
0.0516153 0.0521113 0.312259
-0.042185 -0.017645 0.349106
0.0689352 -0.285889 0.0158057
-0.18228 -0.38441 0.201704
-0.00227893 -0.369848 0.0270464
-0.12087 -0.469652 0.0689771
0.108327 0.149783 0.318995
0.048279 0.0434973 0.300121
-0.119675 -0.141507 0.327973
0.112064 -0.158398 0.0702866
0.0915893 -0.256218 0.0105692
0.0170802 -0.34098 0.0185784
-0.0182289 -0.412281 0.000976552
0.0896034 0.10533 0.294563
0.0531152 0.0580125 0.298639
0.0844967 -0.0166896 0.208524
0.0899871 -0.0624517 0.164774
0.112665 -0.123061 0.0893173
0.0647174 -0.292112 0.00448568
-0.177384 -0.414305 0.158222
-0.0187223 -0.428131 -0.0183622
-0.0520576 -0.483578 -0.0281194
0.0680861 0.130801 0.334096
-0.0378146 0.00412564 0.346547
0.0883395 -0.0340606 0.179916
0.11357 -0.129164 0.0774368
-0.198574 -0.324237 0.242692
0.0602655 -0.297821 -0.00163838
0.0222686 -0.335164 0.00391867
-0.170166 -0.430654 0.132215
-0.136206 -0.462348 0.0688283
-0.0224273 -0.463693 -0.0508317
0.144474 0.181423 0.282252
0.113921 0.130978 0.279103
0.00608939 0.0743385 0.3463
0.0506174 0.0205303 0.257209
-0.14886 -0.174682 0.305699
-0.162499 -0.203743 0.295245
-0.20049 -0.332016 0.232019
0.015711 -0.34666 -0.00600122
-0.0166583 -0.416733 -0.0263268
-0.0354454 -0.474279 -0.0519061
0.0762425 0.0964056 0.284524
-0.0528687 0.00186376 0.338382
0.115748 -0.154569 0.0365713
0.0904554 -0.261832 -0.0199915
-0.191024 -0.39944 0.160421
-0.0162522 -0.409067 -0.0232282
0.0118628 0.0949271 0.341067
0.048183 0.0473594 0.266236
0.0532845 0.0222786 0.236758
0.0839221 -0.0214352 0.172859
0.114402 -0.114418 0.0677578
-0.197838 -0.27008 0.262684
-0.200919 -0.375688 0.182689
-0.184369 -0.416767 0.136296
-0.130978 -0.467015 0.0373719
0.130735 0.18497 0.286637
0.0589838 0.074804 0.271249
0.0792892 -0.013856 0.172908
-0.136069 -0.114403 0.317901
0.107656 -0.0904864 0.08403
0.110952 -0.223346 -0.0237086
0.0983735 -0.250821 -0.0365145
-0.153158 -0.454492 0.0669562
-0.11286 -0.473454 0.00151716
-0.0451481 -0.478837 -0.0670775
0.173253 0.201393 0.245303
0.070389 0.0941121 0.264669
0.0582125 0.0218524 0.218481
0.0896986 -0.0377875 0.135934
-0.182698 -0.219551 0.278837
-0.207132 -0.285964 0.251624
-0.21026 -0.353999 0.192567
-0.19972 -0.392908 0.152627
-0.146597 -0.458948 0.0457526
0.112897 0.190576 0.286156
0.0343004 0.136067 0.325956
0.0829597 0.109225 0.260659
0.0752207 -0.00804577 0.167803
0.114628 -0.139006 0.0235766
0.110861 -0.219737 -0.037547
-0.205133 -0.384225 0.160816
0.0204576 -0.376549 -0.0654525
0.194404 0.237967 0.229542
0.0669965 0.167793 0.310515
0.050513 0.0346031 0.224542
0.0779925 -0.0104333 0.160468
0.100481 -0.0774416 0.0828971
0.0634609 -0.306935 -0.0647106
0.0408609 -0.345979 -0.0722503
0.0189379 -0.392944 -0.0900325
-0.106811 -0.47519 -0.0211736
0.0489897 0.0564395 0.233911
-0.088274 -0.016792 0.323787
0.0866855 -0.0597553 0.10018
0.110723 -0.0908374 0.0535299
0.00548732 -0.429 -0.110643
-0.05596 -0.476224 -0.0811022
0.152495 0.217158 0.246264
0.148005 0.18393 0.225746
-0.0395892 0.0659594 0.323928
-0.123935 -0.0648083 0.314977
-0.163255 -0.120656 0.301626
0.111438 -0.110576 0.0299765
0.114088 -0.129614 0.0115708
-0.22292 -0.304749 0.221041
0.090992 0.198893 0.285771
0.142924 0.181089 0.221511
-0.105467 -0.0203916 0.31617
-0.155323 -0.100714 0.306814
-0.217397 -0.269338 0.242725
-0.217624 -0.372887 0.154291
-0.194004 -0.422553 0.0877048
-0.0718294 -0.476072 -0.0770087
0.181889 0.214896 0.197879
0.10635 0.148138 0.233814
0.0677031 0.0962161 0.22727
0.0470633 0.0536087 0.216201
0.0594695 0.0109019 0.166133
0.106335 -0.0919696 0.0360749
-0.21353 -0.238329 0.24887
-0.224005 -0.348401 0.172672
-0.209674 -0.404108 0.108185
-0.157337 -0.456555 0.0187935
0.21157 0.265948 0.201311
0.106883 0.207438 0.268602
0.125292 0.17094 0.217546
-0.0485088 0.0676102 0.319118
-0.114988 -0.0240502 0.310779
-0.176371 -0.136995 0.287403
0.106894 -0.198391 -0.0562955
0.0489598 -0.347886 -0.115695
-0.0815998 -0.471757 -0.0808685
0.19715 0.262665 0.207931
0.0197379 0.156129 0.308383
0.0804149 0.111385 0.211923
-0.0851309 0.0286963 0.315505
-0.119744 -0.0295007 0.307475
-0.216675 -0.231159 0.245652
-0.232523 -0.29748 0.211689
0.0877735 -0.257817 -0.0928485
0.0445743 -0.354963 -0.128067
-0.167506 -0.451886 0.0162945
-0.097848 -0.468593 -0.0698972
0.240962 0.277217 0.167963
0.0813492 0.208008 0.27766
0.186587 0.221036 0.179994
0.020043 0.160382 0.303759
0.102023 0.150465 0.208345
0.0879813 0.126165 0.206721
-0.147532 -0.0628751 0.305267
0.0153992 -0.0965992 0.0986182
0.0208075 -0.10849 0.0902904
-0.23699 -0.309876 0.193493
0.0499435 -0.343986 -0.130813
0.209095 0.27276 0.193511
0.199109 0.232349 0.170641
-0.00247558 0.147222 0.305738
0.0647419 0.0954681 0.197297
0.0566868 0.00877904 0.138575
-0.216357 -0.212534 0.245776
-0.222633 -0.381351 0.116016
0.0212178 -0.395501 -0.150128
-0.0742203 -0.465101 -0.103317
0.239051 0.271457 0.155061
0.0790078 0.211231 0.27459
-0.128739 -0.0281818 0.300851
-0.156706 -0.0630281 0.299852
0.0630535 -0.064602 0.0676807
0.0230494 -0.123908 0.0598789
0.101382 -0.200507 -0.0802802
-0.157582 -0.45743 -0.0216359
-0.0714861 -0.463411 -0.108863
0.118178 0.168395 0.193566
-0.0873755 0.0514065 0.309479
-0.141776 -0.0323675 0.295319
0.0260258 -0.0828063 0.0836889
-0.000653368 -0.102776 0.0946396
0.0826603 -0.260953 -0.119151
-0.221393 -0.403123 0.0849144
0.0128988 -0.403492 -0.153483
-0.0288291 -0.437255 -0.144634
0.197402 0.277878 0.186847
0.0608556 0.0865542 0.17411
0.0631956 -0.0269724 0.0826343
0.0600465 -0.0802481 0.0457281
0.0202667 -0.122175 0.052189
-0.247947 -0.284455 0.197694
0.0899982 -0.238046 -0.112126
0.0489768 -0.34287 -0.155606
0.207065 0.289993 0.175112
0.191042 0.228496 0.143543
0.136756 0.182274 0.167989
-0.12398 0.0211063 0.301568
0.0628865 -0.0944802 0.0221067
0.0478027 -0.109263 0.023713
-0.234751 -0.375849 0.106907
-0.0378302 -0.437969 -0.15076
0.163853 0.264577 0.197113
0.347011 0.303183 0.034018
0.375664 0.307044 0.00249071
0.401976 0.294318 -0.0321601
0.138973 0.184876 0.161718
0.112445 -0.102094 -0.0416719
0.0976866 -0.195764 -0.106283
-0.24933 -0.346617 0.13855
0.0285187 -0.363216 -0.171492
-0.187699 -0.443664 -0.00586177
0.140639 0.255639 0.205026
0.345844 0.298781 0.0297007
0.382811 0.290814 -0.0156639
0.14403 0.191257 0.149799
0.0351758 -0.112814 0.0148621
-0.25217 -0.261766 0.203195
-0.22507 -0.405597 0.0553725
-0.0559711 -0.44508 -0.14759
0.216217 0.303495 0.157555
0.346612 0.317854 0.0331038
0.117581 0.24788 0.21997
0.0672183 0.22998 0.253961
0.396072 0.308471 -0.0248396
0.363459 0.286692 -0.00809707
-0.0263319 0.153299 0.287859
-0.0673205 0.112845 0.298577
0.085743 0.114706 0.140691
0.0957708 -0.0754181 -0.0241701
0.10641 -0.134727 -0.0778265
-0.25805 -0.308522 0.156683
-0.227559 -0.402733 0.0569069
-0.146599 -0.458473 -0.0759085
0.208027 0.300209 0.162413
0.366513 0.311531 0.00775897
0.311514 0.282507 0.034447
0.378583 0.285137 -0.0341589
0.0977043 0.157147 0.161474
0.06029 0.0766058 0.134863
0.0314848 -0.0488656 0.0603412
0.0243975 -0.119883 0.0126194
-0.0192636 -0.408016 -0.17533
-0.0599002 -0.44235 -0.156811
0.304633 0.322398 0.068214
0.15143 0.269375 0.189567
0.228451 0.277203 0.112719
0.022062 0.206256 0.269931
0.401937 0.296377 -0.0568803
-0.000521861 0.175146 0.272432
-0.092941 0.0929755 0.2995
0.0408248 0.0521659 0.128894
-0.210584 -0.0845623 0.271111
-0.00603126 -0.0879621 0.0608481
0.0302226 -0.112995 0.00864076
-0.251767 -0.360425 0.102366
0.0462422 -0.322788 -0.176797
-0.212392 -0.431142 0.000203937
-0.152646 -0.456956 -0.0751948
-0.0904396 -0.453836 -0.1433
0.2321 0.293318 0.107584
0.136591 0.18881 0.122826
0.0335841 0.0136005 0.0959601
0.02512 -0.046769 0.0582812
0.109358 -0.0841523 -0.0608245
-0.25524 -0.227691 0.205531
0.0858695 -0.229948 -0.153545
0.0359046 -0.33064 -0.185276
-0.161306 -0.454325 -0.0753411
0.19831 0.306695 0.153812
0.139607 0.274018 0.182596
0.372137 0.31912 -0.020607
0.0100205 0.201008 0.262141
0.367112 0.280264 -0.0405963
-0.0739591 0.124105 0.292008
0.0312233 0.0481864 0.118005
-0.00208272 -0.0719236 0.0542744
0.108179 -0.106532 -0.0901673
0.0886232 -0.214148 -0.153134
-0.127252 -0.454045 -0.117921
0.180411 0.30029 0.157183
0.12554 0.269115 0.190176
0.418728 0.330895 -0.0631162
-0.0258402 0.174594 0.269921
0.339185 0.266339 -0.0336524
0.158876 0.207414 0.106923
0.12756 0.181251 0.119387
0.0997836 0.14623 0.118951
-0.152424 0.0249136 0.284621
-0.171982 -0.0119104 0.273964
0.0513414 -0.0749893 -0.0133259
-0.267517 -0.329671 0.119481
0.0427689 -0.312398 -0.188961
-0.00442895 -0.376278 -0.195836
-0.0996062 -0.445291 -0.152584
0.299371 0.336561 0.0551888
0.355574 0.324967 -0.00849839
0.427858 0.325435 -0.0872543
-0.0203189 0.181983 0.26453
0.373518 0.281199 -0.0654632
0.328057 0.261497 -0.0309481
0.0988484 0.126117 0.0978325
0.0569989 0.0818574 0.101379
-0.00245279 -0.0792946 0.0396582
0.0184942 -0.087086 0.00792964
-0.2446 -0.396722 0.0321647
-0.102449 -0.445218 -0.151493
0.263808 0.323407 0.0813908
0.207479 0.269969 0.0903072
0.414777 0.311155 -0.0924746
0.278968 0.24992 -0.00152821
0.122951 0.175965 0.105597
0.107521 0.153586 0.105318
0.00836659 0.0292903 0.102463
0.00718076 -0.0508449 0.0372621
0.104101 -0.0572045 -0.0612029
0.0978346 -0.158563 -0.136647
-0.272106 -0.326004 0.110825
-0.184925 -0.445799 -0.0757532
0.30129 0.340263 0.0438075
0.0659592 0.25476 0.222398
0.440673 0.343539 -0.101583
0.254952 0.266664 0.029074
0.266136 0.251451 0.00468715
-0.0773149 0.141725 0.281954
0.295062 0.240459 -0.0328973
0.115544 0.148026 0.0839007
0.09719 0.121342 0.0830774
0.0245688 0.0601055 0.110145
-0.226484 -0.0767578 0.257146
0.0993729 -0.046819 -0.0586851
-0.258423 -0.16591 0.215528
0.100046 -0.135449 -0.12735
0.0471941 -0.292491 -0.196174
0.0059037 -0.35434 -0.203147
-0.155641 -0.447511 -0.113196
0.259596 0.337702 0.0758559
0.106364 0.273211 0.188515
0.0179028 0.226995 0.241451
-0.0358582 0.18721 0.260569
0.329557 0.253305 -0.0605758
0.300292 0.233849 -0.0479796
0.317399 0.235133 -0.0617879
0.322078 0.211541 -0.0901473
0.0966965 0.121675 0.0712438
0.00424521 -0.0564557 0.0259575
-0.266762 -0.20949 0.188626
-0.282114 -0.27579 0.144767
0.057921 -0.26808 -0.197327
0.00656533 -0.346892 -0.209108
-0.167281 -0.447618 -0.108517
0.192002 0.320152 0.128301
0.194388 0.258088 0.0754837
0.380103 0.286613 -0.0970836
0.258095 0.233137 -0.0156164
0.271398 0.223384 -0.0364709
0.285975 0.190255 -0.0732694
0.271138 0.17417 -0.0730051
-0.00192626 0.0438785 0.107161
0.189131 0.0169849 -0.115166
0.0575323 -0.050011 -0.0349163
0.102187 -0.0891145 -0.10898
-0.28464 -0.276861 0.140072
-0.268384 -0.355895 0.0603068
0.00837051 -0.342788 -0.210709
-0.134267 -0.443289 -0.142401
0.313713 0.342645 0.0134497
0.33351 0.339679 -0.0144596
0.202075 0.275651 0.0756963
0.230809 0.253316 0.0251162
0.200603 0.228111 0.0365674
0.232898 0.235553 0.00883727
0.246584 0.236402 -0.00423722
0.329321 0.248484 -0.0812722
0.324294 0.237975 -0.0833751
0.137135 0.174868 0.0586386
0.319391 0.209599 -0.102854
0.312777 0.191209 -0.110324
0.265727 0.161204 -0.0820072
0.30221 0.170347 -0.115652
0.270241 0.151608 -0.0970001
-0.198238 -0.0113627 0.258745
0.229966 0.0517403 -0.139104
0.013195 -0.0183778 0.0325601
0.188047 0.0145095 -0.11746
0.00844227 -0.0563294 0.0125928
0.0680101 -0.238311 -0.198438
-0.0882735 -0.419457 -0.179768
0.106658 0.282211 0.175301
0.427438 0.363873 -0.0970384
0.189059 0.25038 0.059066
0.147181 0.196003 0.0610935
0.216859 0.20419 -0.00494454
0.241821 0.206917 -0.0298577
0.186251 0.18613 0.0109685
0.22016 0.191649 -0.0202618
0.207696 0.187479 -0.010724
0.201526 0.178915 -0.0121651
0.140672 0.15452 0.0315613
0.22784 0.175823 -0.0435565
0.239896 0.17542 -0.0538084
0.0677967 0.094117 0.0576245
0.0495527 0.081179 0.0641584
0.0153784 0.0653214 0.0881625
-0.00977652 0.0409676 0.101018
0.16164 0.0424705 -0.0778307
0.228736 0.0335902 -0.154848
0.22106 0.0232419 -0.154359
0.0940215 -0.0205194 -0.0554864
0.100322 -0.086159 -0.118543
-0.223272 -0.432528 -0.0565153
-0.162987 -0.441944 -0.1299
0.151385 0.310533 0.140228
-0.103996 0.144497 0.271724
-0.153736 0.080761 0.273774
0.211069 0.167152 -0.0406201
-0.00435819 0.0359246 0.0795277
-0.000889517 0.00653098 0.0581518
0.111395 0.017459 -0.0529382
0.0650826 -0.0252864 -0.0439359
0.09852 -0.065401 -0.108443
-0.282697 -0.224668 0.16522
0.0549219 -0.255085 -0.214311
-0.251268 -0.410316 -0.0183289
-0.072372 -0.403621 -0.200673
0.202097 0.340337 0.10138
0.427254 0.339684 -0.13274
0.396114 0.305777 -0.12738
0.323421 0.229828 -0.107029
0.160903 0.162377 0.00204271
0.217723 0.162147 -0.0530013
-0.190632 0.0207415 0.25977
0.257982 0.127726 -0.12414
0.128621 0.0365958 -0.0616992
0.100869 0.0171511 -0.0496076
0.0279997 -0.0282335 -0.0135305
0.098797 -0.0705022 -0.116044
0.0846515 -0.186441 -0.19803
-0.276286 -0.359739 0.0365337
-0.177297 -0.441464 -0.123709
0.297261 0.352007 0.00869493
0.358438 0.344629 -0.0608279
0.212271 0.277739 0.0370331
0.37451 0.283727 -0.123642
0.325348 0.235764 -0.114194
0.312466 0.206377 -0.124319
-0.193953 0.0302911 0.257805
-0.198039 0.0142888 0.25559
0.00197278 0.0420634 0.0675917
0.00996206 0.0289299 0.0451248
0.00950451 0.009786 0.0341684
0.0163821 -0.0108197 0.00867515
0.0303375 -0.0267993 -0.0171619
0.0430181 -0.029187 -0.0314487
0.0945837 -0.0537331 -0.113112
-0.285903 -0.207994 0.163698
0.0808881 -0.192193 -0.204661
-0.279113 -0.350201 0.0459216
-0.252382 -0.417401 -0.0402252
-0.215717 -0.437019 -0.0942836
-0.171681 -0.438919 -0.137712
0.278175 0.357068 0.021908
0.0594153 0.277846 0.191674
0.362524 0.349618 -0.072721
-0.01537 0.231786 0.227582
0.202563 0.134749 -0.075981
0.268256 0.131824 -0.145152
0.23048 0.096661 -0.13867
0.109424 0.0361483 -0.0552222
0.130921 0.000987734 -0.110968
0.0944415 -0.0497886 -0.106175
-0.288792 -0.206534 0.160788
0.100385 -0.133619 -0.188301
-0.0762701 -0.394316 -0.208318
0.260389 0.358155 0.0369139
0.360336 0.351104 -0.0748356
0.190001 0.289222 0.0553343
0.103416 0.124219 0.0149826
0.178067 0.130703 -0.0608996
0.0134369 0.064736 0.0586355
0.278799 0.133842 -0.164555
0.260463 0.121977 -0.15243
0.233929 0.109838 -0.136027
0.0215321 0.0474379 0.0357169
0.263235 0.107005 -0.171143
0.0215274 0.0263188 0.016237
0.100966 -0.0980798 -0.164737
0.0174291 -0.293807 -0.230914
-0.0457094 -0.368059 -0.226717
0.239394 0.357389 0.0553264
0.0665687 0.28619 0.177018
0.350442 0.351055 -0.0709378
0.18677 0.28454 0.0520726
-0.126161 0.146941 0.257537
0.334783 0.245496 -0.142483
0.148489 0.146629 -0.0263137
0.106858 0.122223 -0.00270431
0.104846 0.120841 -0.00284374
0.021492 0.0727884 0.0490352
0.271827 0.118908 -0.176501
-0.242816 -0.0390779 0.232941
0.0180922 -0.00191787 -0.00356207
0.090406 -0.0434562 -0.116191
-0.299656 -0.245573 0.131487
-0.0338507 -0.347508 -0.23239
-0.228227 -0.431615 -0.0924679
0.201782 0.351127 0.0739541
0.0650875 0.289885 0.168773
0.0170325 0.268082 0.198504
-0.0555695 0.214937 0.235084
0.392319 0.309724 -0.153295
0.341159 0.251544 -0.143963
0.305887 0.179687 -0.168864
0.0548403 0.0986054 0.0318456
0.274057 0.122663 -0.18385
-0.25283 -0.048391 0.223913
0.23123 0.0428069 -0.201457
0.0915278 -0.0242814 -0.108867
0.0949083 -0.0884906 -0.165728
-0.306075 -0.275626 0.0992394
-0.111526 -0.399782 -0.198196
0.0677709 0.293902 0.159488
0.176472 0.2797 0.0389489
0.356818 0.265482 -0.162937
-0.197781 0.0569287 0.254311
0.139962 0.131997 -0.0426347
0.156873 0.129022 -0.0618142
-0.22373 0.00776094 0.23642
0.0614608 0.0326122 -0.0426688
0.229661 0.0424627 -0.203426
-0.283503 -0.123388 0.194685
0.093395 -0.129475 -0.198852
-0.297636 -0.325038 0.0461589
-0.268032 -0.3998 -0.0454183
-0.109752 -0.392465 -0.203756
0.210292 0.355948 0.05832
0.355367 0.35982 -0.0919391
0.395086 0.317429 -0.167817
-0.146475 0.133026 0.253125
-0.210474 0.0451705 0.243762
0.139634 0.126602 -0.0533392
0.193795 0.11838 -0.11169
0.113677 0.0657607 -0.0770872
0.0554654 0.031548 -0.0379305
0.202674 0.0134765 -0.206228
-0.0012535 -0.287169 -0.24014
-0.222315 -0.425333 -0.116615
0.0280689 0.282487 0.180977
0.424632 0.352334 -0.180248
0.16979 0.244321 0.000644433
0.344363 0.247359 -0.178636
0.263603 0.108811 -0.199146
0.251907 0.0870346 -0.207683
0.217468 0.0362308 -0.213226
0.0898576 -0.0875285 -0.180625
0.000746284 -0.279415 -0.242866
-0.247326 -0.418063 -0.0931988
0.169581 0.349022 0.0794677
0.256519 0.362514 0.00200048
0.0537177 0.296877 0.157967
0.455237 0.39057 -0.182984
0.160887 0.265811 0.0241754
-0.204166 0.0669733 0.244697
0.0488999 0.0687086 -0.0191877
0.0619735 0.0545984 -0.0389917
0.120741 0.0113125 -0.136097
0.0847602 -0.0725379 -0.170734
0.0751843 -0.137363 -0.216261
0.0518326 -0.191348 -0.231042
0.188101 0.3562 0.0609209
0.00932818 0.28003 0.181614
-0.013379 0.263478 0.194094
0.431286 0.3618 -0.192217
0.374375 0.290437 -0.186988
-0.197279 0.0851702 0.242802
0.132494 0.149373 -0.0525595
0.300076 0.163908 -0.208071
0.172078 0.0989646 -0.131976
-0.280077 -0.0772365 0.200559
-0.285914 -0.0950029 0.192103
-0.298946 -0.136354 0.170904
0.0410025 -0.204417 -0.237718
-0.0145019 -0.287623 -0.244427
0.228881 0.364881 0.0137294
0.436391 0.40306 -0.170574
-0.123026 0.185845 0.237408
0.388 0.310275 -0.194799
0.152497 0.234694 -0.0090869
0.331117 0.224269 -0.200788
-0.237897 0.0217466 0.222404
0.156648 0.0944385 -0.125571
0.226861 0.0608474 -0.226187
0.171655 0.0213962 -0.200301
-0.307261 -0.159457 0.152501
-0.315383 -0.299327 0.0508742
-0.00154549 -0.271319 -0.247466
-0.0662699 -0.335386 -0.240469
-0.238388 -0.413189 -0.122907
-0.209605 -0.413418 -0.147293
0.251251 0.364954 -0.0130806
0.443915 0.404571 -0.180907
-0.00575047 0.277898 0.180789
0.449097 0.392447 -0.196695
0.149019 0.263378 0.0131343
0.165664 0.237974 -0.0295958
0.348071 0.246726 -0.205907
-0.225805 0.0504874 0.229707
-0.316973 -0.187628 0.131794
0.0207982 -0.232904 -0.247775
-0.0621285 -0.328778 -0.243248
0.135223 0.343033 0.0830721
0.43166 0.367063 -0.208021
0.141488 0.226478 -0.0154778
0.362617 0.265339 -0.216726
0.317627 0.196215 -0.227532
-0.251641 -0.000601119 0.209843
0.155032 0.0993434 -0.135037
-0.287763 -0.0708786 0.19003
0.0864129 -0.00118846 -0.144337
0.0755522 -0.0556145 -0.173492
0.0580371 -0.156539 -0.233097
0.0382015 -0.18798 -0.242782
-0.0182785 -0.271743 -0.252505
-0.0649263 -0.320165 -0.247142
-0.224483 -0.408039 -0.146416
0.22644 0.368046 -0.00314014
0.391126 0.390399 -0.153427
-0.0611542 0.247107 0.200206
0.410648 0.336194 -0.21443
0.394159 0.316093 -0.216212
0.13875 0.219098 -0.0256515
0.316416 0.193229 -0.23079
0.307797 0.177328 -0.23296
-0.254849 0.00537729 0.206465
0.10893 0.0870957 -0.0977505
-0.280477 -0.0470425 0.193743
0.0840329 -0.00199593 -0.146902
0.0760552 -0.0956209 -0.216362
-0.325664 -0.28656 0.0499207
-0.309668 -0.339362 -0.00962791
-0.263468 -0.402898 -0.10328
-0.175843 -0.392315 -0.19056
0.0932736 0.328444 0.101291
0.434663 0.395936 -0.198974
0.423803 0.354011 -0.223977
0.175501 0.261352 -0.0393307
0.381396 0.296629 -0.224243
0.144625 0.174043 -0.0792961
0.301223 0.164121 -0.245075
0.172424 0.111865 -0.161293
-0.294331 -0.0739669 0.181735
0.0232741 -0.196625 -0.249005
-0.220986 -0.401202 -0.159243
0.143944 0.356044 0.0624051
0.415997 0.343665 -0.225021
0.172279 0.240387 -0.0573729
0.134173 0.186697 -0.0654008
0.1166 0.164598 -0.0638232
0.157142 0.137982 -0.121824
0.164377 0.106315 -0.15528
0.22024 0.0681996 -0.245606
0.155181 0.0162325 -0.224269
-0.32405 -0.165669 0.131784
-0.325748 -0.30407 0.0200729
-0.308713 -0.347279 -0.0316349
-0.267302 -0.397175 -0.11421
-0.188374 -0.389066 -0.190457
0.0103541 0.30042 0.153453
0.304719 0.36229 -0.114716
0.194234 0.278595 -0.0587858
0.100692 0.237249 0.0064861
0.0946341 0.221973 -0.00240851
0.359969 0.255652 -0.247919
0.164559 0.186715 -0.098957
0.168898 0.171588 -0.118704
0.09419 0.103628 -0.0970762
0.136175 0.0314272 -0.192319
0.066728 -0.0569286 -0.196022
-0.334322 -0.282871 0.0369374
-0.0287112 -0.260257 -0.25919
0.0227304 0.311222 0.138222
-0.03727 0.275623 0.177316
0.300719 0.366986 -0.111428
-0.122619 0.215027 0.21239
0.194889 0.276161 -0.0713939
0.0980473 0.235897 -0.00225237
0.173289 0.240604 -0.0759946
0.340954 0.225733 -0.260534
0.309828 0.179575 -0.26854
-0.269371 -0.00192852 0.189091
-0.298882 -0.0689694 0.175703
0.0664632 -0.0875157 -0.228901
-0.336594 -0.251558 0.0618285
0.000630349 -0.211978 -0.25568
-0.307545 -0.348845 -0.0483569
-0.283621 -0.379693 -0.0960406
0.255809 0.371411 -0.0662729
-0.0891301 0.247033 0.19349
0.416255 0.351233 -0.250594
0.411817 0.33676 -0.254323
0.35127 0.23623 -0.273343
0.149228 0.147958 -0.133983
0.133487 0.110428 -0.146763
0.148857 0.0116665 -0.239731
-0.340595 -0.250827 0.0552437
-0.00442046 -0.207618 -0.25759
0.195254 0.373367 -0.00584827
0.380665 0.400111 -0.178829
0.408051 0.388139 -0.219201
0.163521 0.276118 -0.0508445
0.171237 0.244198 -0.0821099
0.166602 0.176778 -0.128712
-0.254609 0.042944 0.199936
-0.285198 -0.0221418 0.176436
0.19254 0.0515916 -0.260859
0.154822 0.00668862 -0.257589
-0.339997 -0.234704 0.0659531
-0.0145817 -0.219269 -0.259188
-0.198207 -0.379326 -0.195501
0.395814 0.398663 -0.201234
0.414486 0.358477 -0.253374
-0.211812 0.125812 0.212717
-0.241648 0.0829278 0.205491
0.151161 0.167894 -0.133252
-0.270205 0.0140781 0.186478
0.228405 0.110474 -0.25818
-0.335093 -0.154028 0.11857
0.0284805 -0.135828 -0.249992
-0.0167657 -0.211168 -0.260885
-0.312284 -0.340477 -0.0556975
0.00213986 0.314016 0.131183
0.309452 0.376499 -0.137834
-0.079892 0.264807 0.176396
0.411377 0.340557 -0.27136
0.160464 0.20605 -0.11515
0.360452 0.241509 -0.295039
-0.26094 0.0447886 0.190821
0.300703 0.172319 -0.287834
0.220891 0.109372 -0.256122
0.0559318 -0.0129532 -0.184406
-0.323514 -0.323487 -0.0403443
0.0748046 0.344764 0.0772276
0.279044 0.376131 -0.112048
0.399972 0.380721 -0.234222
0.138487 0.271625 -0.0465687
-0.196426 0.158324 0.208693
0.367673 0.248169 -0.305498
0.277181 0.152876 -0.291921
-0.322068 -0.0871066 0.141225
-0.346013 -0.273463 0.0165048
-0.32006 -0.328683 -0.0551949
-0.138549 -0.32685 -0.241752
0.0844117 0.350662 0.0657321
-0.0808961 0.270109 0.171063
0.398281 0.357147 -0.261854
0.407459 0.341407 -0.275935
0.154022 0.221997 -0.113241
0.101176 0.136063 -0.123544
0.316725 0.186197 -0.315298
0.185515 0.0629824 -0.270312
0.0489564 -0.0306953 -0.201805
0.0403824 -0.0908238 -0.245658
-0.337694 -0.299361 -0.0184727
-0.313337 -0.33576 -0.071774
-0.13552 -0.314223 -0.247219
0.148979 0.374441 0.0100068
0.182475 0.380274 -0.0269946
0.377408 0.387315 -0.220213
0.390401 0.367485 -0.248871
-0.193653 0.170535 0.202164
0.397151 0.286091 -0.318479
-0.25628 0.0800842 0.187777
0.127527 0.148207 -0.149783
0.202597 0.0977894 -0.271728
0.158316 0.0306623 -0.276361
-0.351012 -0.199215 0.0669002
-0.0186428 -0.189607 -0.2646
-0.330994 -0.313359 -0.0431856
0.188322 0.380759 -0.0363857
0.30853 0.38187 -0.156031
0.382223 0.373956 -0.239188
0.386506 0.333412 -0.282417
-0.228435 0.128161 0.194772
-0.279018 0.0326651 0.170992
0.0557705 0.0172216 -0.18652
0.0417889 -0.0476572 -0.223589
-0.354724 -0.243176 0.0278735
-0.0874125 -0.267592 -0.265934
-0.191722 -0.343942 -0.217104
0.114036 0.363535 0.0215751
0.379901 0.356006 -0.258349
0.130923 0.246989 -0.0896152
0.219384 0.125116 -0.278443
0.0438377 -0.000188822 -0.193042
-0.35514 -0.256006 0.0132646
-0.2765 -0.359287 -0.1504
0.135284 0.376284 -0.000940901
0.104919 0.36273 0.0220673
-0.127453 0.249555 0.172292
0.376104 0.330631 -0.283813
0.141154 0.230215 -0.120649
0.12544 0.205331 -0.129201
-0.264016 0.077787 0.176148
0.381906 0.231683 -0.368445
0.362886 0.21046 -0.368366
0.207851 0.119793 -0.278671
0.111688 0.0518351 -0.233258
0.0398962 0.00364357 -0.196749
-0.351709 -0.274857 -0.0145022
-0.163946 -0.313087 -0.240886
0.273542 0.381135 -0.142518
0.354511 0.375649 -0.235531
-0.186632 0.196303 0.184649
0.113216 0.21263 -0.113432
0.120615 0.200624 -0.130876
0.421493 0.251797 -0.402365
0.409355 0.233538 -0.405691
0.371015 0.196133 -0.395272
0.0506482 0.026233 -0.195607
-0.350293 -0.134418 0.0889438
-0.00244744 -0.120431 -0.260289
-0.351619 -0.275482 -0.0213667
-0.301456 -0.334447 -0.120144
0.0635691 0.360013 0.0517062
0.106614 0.366056 0.0112521
-0.0300478 0.320204 0.119317
0.285262 0.380859 -0.161747
0.291849 0.380827 -0.175205
0.34635 0.364575 -0.244928
0.406024 0.318459 -0.336342
0.41329 0.286743 -0.374917
0.407876 0.251798 -0.398817
0.268507 0.159328 -0.317166
0.183363 0.104974 -0.284821
0.0301551 -0.012006 -0.21815
-0.362174 -0.191105 0.0479275
-0.359777 -0.250289 0.00134351
-0.0519203 -0.190811 -0.273431
-0.336608 -0.303401 -0.0593282
-0.142229 -0.290213 -0.255701
-0.188993 -0.317323 -0.229739
0.0675349 0.362488 0.0404631
0.0961046 0.366218 0.0103637
0.272837 0.381119 -0.158959
-0.244578 0.127202 0.177817
0.410205 0.260193 -0.394915
0.358331 0.208536 -0.387093
0.234878 0.147265 -0.304109
0.183352 0.110509 -0.286003
0.139815 0.0452124 -0.287185
-0.0288542 -0.144274 -0.267799
-0.305354 -0.321968 -0.12405
-0.255038 -0.339255 -0.186204
0.167647 0.383885 -0.0492109
0.224307 0.380305 -0.114547
0.287128 0.380035 -0.177152
0.377886 0.258361 -0.374967
-0.299207 0.0169482 0.139929
0.277534 0.159789 -0.349905
0.0803576 0.0574186 -0.225413
0.0288728 -0.0131951 -0.223559
-0.0575005 -0.179703 -0.271678
-0.107997 -0.239271 -0.26812
0.0178789 0.352593 0.0723617
0.25515 0.379978 -0.155763
-0.267873 0.0929138 0.159984
-0.286673 0.0549756 0.149022
0.246215 0.157821 -0.327836
0.17247 0.11082 -0.287559
0.0423139 0.038293 -0.208144
-0.359018 -0.142793 0.0636963
-0.364184 -0.210746 0.0130225
-0.07537 -0.195699 -0.270116
-0.119032 -0.241689 -0.265346
-0.180969 -0.289616 -0.240334
-0.225659 -0.318698 -0.215326
0.0173832 0.354936 0.0647991
-0.0191149 0.339566 0.0885048
0.208984 0.379354 -0.112586
0.262794 0.379436 -0.172405
0.319828 0.369471 -0.235284
0.339345 0.333645 -0.288373
-0.235373 0.148375 0.164498
0.359918 0.26369 -0.362249
0.0217195 -0.0252366 -0.244962
-0.0368574 -0.123244 -0.264569
-0.0820841 -0.1918 -0.268115
-0.331144 -0.295339 -0.0956559
-0.198505 -0.293326 -0.232593
0.0899534 0.370141 -0.00434784
-0.0600294 0.317145 0.108521
0.211557 0.379808 -0.127236
0.292256 0.374181 -0.212175
-0.183041 0.223857 0.158081
0.325748 0.319792 -0.292932
-0.26206 0.115198 0.155984
0.321555 0.250323 -0.344405
0.318945 0.236669 -0.349574
0.292551 0.205783 -0.350683
0.266431 0.176651 -0.343134
-0.314861 -0.0113147 0.107068
-0.0522392 -0.14058 -0.267125
-0.330056 -0.293502 -0.103911
-0.18977 -0.283609 -0.238149
-0.270569 -0.317538 -0.179677
0.0614827 0.365585 0.0151783
0.284756 0.372796 -0.211467
0.314193 0.312195 -0.293126
0.316924 0.28862 -0.316771
0.319743 0.262204 -0.336636
0.228731 0.166744 -0.31988
-0.351674 -0.0975113 0.0690088
-0.360406 -0.23697 -0.0291271
-0.00590167 0.354374 0.0635724
-0.219222 0.177469 0.150875
0.296032 0.242185 -0.334084
0.15128 0.112165 -0.29165
-0.0187327 -0.0704143 -0.260231
-0.366611 -0.205204 -0.00622211
-0.102759 -0.190423 -0.265937
-0.171308 -0.256669 -0.250343
-0.246047 -0.303357 -0.211364
-0.120303 0.290984 0.125424
0.270403 0.365642 -0.219912
-0.225383 0.16912 0.143547
0.290385 0.2901 -0.298802
0.292518 0.268855 -0.315696
-0.280177 0.091923 0.137797
-0.294484 0.0636836 0.125264
-0.303732 0.0373335 0.11564
0.176729 0.138811 -0.30477
-0.328284 -0.0296743 0.0847148
-0.0319611 -0.0806905 -0.26135
-0.064029 -0.127454 -0.265977
-0.172872 -0.247382 -0.25006
-0.192394 -0.265396 -0.241637
-0.25697 -0.298963 -0.203473
0.0104838 0.359973 0.0376354
0.190205 0.373098 -0.138895
-0.182504 0.238746 0.143407
0.2738 0.315785 -0.266851
0.26842 0.244667 -0.317367
0.25802 0.229111 -0.320631
0.156848 0.134544 -0.292907
0.0947579 0.0872306 -0.269958
-0.0147575 -0.0450109 -0.260633
-0.302337 -0.289489 -0.15558
-0.261327 -0.292321 -0.200196
0.0588656 0.369819 -0.00767088
0.158993 0.372908 -0.111641
-0.151206 0.270354 0.131634
0.264379 0.344031 -0.242564
0.256978 0.30323 -0.270142
0.262802 0.273103 -0.296596
0.24375 0.233205 -0.310294
-0.298788 0.0610853 0.11604
-0.315402 -0.00188956 0.0851353
0.00510541 -0.00478628 -0.252132
-0.365107 -0.177147 -0.00754721
-0.121631 -0.178766 -0.261507
-0.339873 -0.266171 -0.0991087
-0.226696 -0.264165 -0.223724
0.103425 0.37803 -0.0565065
0.13321 0.375045 -0.0884958
0.180015 0.368512 -0.14259
-0.191554 0.234268 0.134962
0.17569 0.179629 -0.294334
-0.324399 -0.0223571 0.072714
-0.340528 -0.0473412 0.0599304
-0.0145515 -0.0235446 -0.261046
-0.360148 -0.141101 0.00672969
-0.366154 -0.204793 -0.0364046
-0.128626 -0.179552 -0.260086
-0.153076 -0.202851 -0.255219
-0.237721 -0.263544 -0.216594
-0.262323 -0.282512 -0.200607
-0.0647674 0.330886 0.0708442
-0.122305 0.299997 0.107289
0.231776 0.354399 -0.216459
-0.235063 0.165829 0.120326
0.218197 0.257968 -0.279659
0.187366 0.206189 -0.291017
0.144624 0.149694 -0.292486
-0.320922 -0.0148895 0.0624412
-0.349124 -0.0691049 0.0487286
-0.361103 -0.146315 -0.00270008
-0.101726 -0.140412 -0.263614
-0.164198 -0.201985 -0.251198
-0.318835 -0.263258 -0.140446
0.063304 0.374457 -0.0289863
0.15621 0.370006 -0.127665
-0.183668 0.252247 0.126714
0.209594 0.278525 -0.260773
0.203691 0.263415 -0.267002
0.180181 0.219194 -0.280793
0.136893 0.144353 -0.293226
-0.323115 -0.0180408 0.0540929
0.00812268 0.0218582 -0.257077
-0.0609936 -0.0788707 -0.263258
-0.105056 -0.13442 -0.263447
-0.221954 -0.233786 -0.22569
-0.250126 -0.250628 -0.207643
0.100677 0.375756 -0.0761731
0.204278 0.357604 -0.200904
0.198192 0.295399 -0.244361
0.191585 0.261888 -0.260893
0.135396 0.154163 -0.290677
-0.322563 -0.0167698 0.0527588
0.00785481 0.0281322 -0.254787
-0.103326 -0.125454 -0.26357
-0.238046 -0.235633 -0.215193
0.0455691 0.372692 -0.026975
-0.147061 0.29266 0.101815
-0.1787 0.261767 0.116819
-0.196941 0.239767 0.121623
0.19843 0.332035 -0.222955
-0.233755 0.173427 0.107549
-0.265793 0.14601 0.112532
-0.298844 0.0847208 0.09853
0.140573 0.17527 -0.283521
-0.315071 0.0185471 0.0609683
0.0223149 0.0784617 -0.239564
-0.343021 -0.0508204 0.0378108
-0.000538467 0.0220035 -0.262133
-0.0378992 -0.0324607 -0.262827
-0.0793874 -0.0746334 -0.262271
-0.347272 -0.22633 -0.0959537
-0.331563 -0.235564 -0.124799
-0.216784 -0.218798 -0.228395
-0.0716189 0.323363 0.0429844
-0.16052 0.283683 0.101508
0.187919 0.320675 -0.226347
-0.28351 0.121945 0.105788
0.120452 0.140921 -0.296818
-0.160525 -0.16601 -0.251108
-0.244763 -0.218851 -0.212534
0.0230961 0.366197 -0.0283982
-0.0359129 0.337121 0.0113844
0.103561 0.365164 -0.111422
0.162047 0.342865 -0.191143
-0.269633 0.145105 0.103663
-0.291445 0.106985 0.0909374
0.111197 0.156446 -0.285497
0.0391787 0.0965265 -0.255931
-0.323544 -0.0168256 0.0320079
-0.0433564 -0.0101135 -0.260344
-0.35741 -0.129559 -0.0262257
-0.355074 -0.187114 -0.0759189
-0.20206 -0.192722 -0.236793
0.0267317 0.366504 -0.0333114
0.0633352 0.36748 -0.0703819
-0.0365589 0.32805 -0.00265445
-0.0510774 0.309182 0.000429393
0.155359 0.34002 -0.190792
0.164434 0.31092 -0.224984
0.152818 0.26447 -0.246435
0.118909 0.197382 -0.267309
-0.318911 0.00252161 0.033941
-0.000400721 0.0594855 -0.250213
-0.0312223 0.0109751 -0.259729
-0.322019 -0.213487 -0.140471
0.0147472 0.361053 -0.0323784
0.0540072 0.362359 -0.075722
0.0947818 0.362021 -0.115584
0.13966 0.34098 -0.181399
0.159863 0.301138 -0.230241
-0.314756 0.0469319 0.058183
0.0892528 0.133951 -0.296661
0.0468506 0.107762 -0.270226
0.0143496 0.0916369 -0.252486
-0.358108 -0.137907 -0.0454043
-0.35844 -0.145638 -0.050273
-0.165222 -0.138745 -0.246524
-0.305379 -0.213896 -0.164681
-0.097386 0.32007 0.040938
0.0279692 0.350119 -0.0650308
0.0949529 0.356501 -0.128289
0.117181 0.345386 -0.16309
0.141697 0.326132 -0.199658
-0.231442 0.193045 0.0795766
0.103955 0.208291 -0.257769
0.085285 0.147056 -0.285486
0.0260341 0.108715 -0.25906
-0.345684 -0.0689191 -0.00975721
-0.133754 -0.0913664 -0.252863
-0.301361 -0.206474 -0.170545
0.0444037 0.351541 -0.0864363
-0.193908 0.25956 0.0898225
0.118197 0.332439 -0.179671
0.126719 0.294608 -0.217666
-0.264867 0.152559 0.0729394
0.0957224 0.216765 -0.25069
0.0735991 0.15853 -0.275263
0.0251523 0.111612 -0.259762
-0.331566 -0.0335341 -0.00552227
-0.3542 -0.121466 -0.0505491
-0.171425 -0.125709 -0.244027
-0.205076 -0.153557 -0.234539
-0.267413 -0.190781 -0.201037
-0.290357 -0.20309 -0.181369
-0.147129 0.301501 0.0645575
-0.00536312 0.332459 -0.061118
-0.18905 0.267289 0.0812154
0.112537 0.315987 -0.191255
0.0946267 0.268554 -0.215066
0.0916003 0.232428 -0.238673
-0.318068 0.0125328 0.0108248
-0.0564176 0.022138 -0.254937
-0.10222 -0.0351833 -0.254319
-0.127577 -0.0726496 -0.252065
-0.340515 -0.157014 -0.104107
-0.11454 0.317138 0.0345526
-0.175582 0.281934 0.0727824
-0.0615564 0.303727 -0.0315275
0.082345 0.304065 -0.181291
0.0889046 0.280675 -0.204725
0.0821582 0.230139 -0.237076
-0.320186 -0.000444159 -0.00382411
-0.0625401 0.0218449 -0.254035
-0.101449 -0.0317741 -0.254169
-0.342592 -0.141452 -0.0931395
-0.200015 -0.127859 -0.233238
-0.278298 -0.176652 -0.189596
0.000721451 0.332836 -0.0739881
-0.0310371 0.306057 -0.0649332
0.0146446 0.313305 -0.112128
0.06978 0.307133 -0.169885
-0.231203 0.205292 0.0576063
0.0742863 0.227178 -0.236563
0.0603573 0.201021 -0.249067
-0.318423 0.0408396 0.0247459
-0.0591904 0.0404109 -0.252812
-0.343708 -0.0820175 -0.0508093
-0.339657 -0.108025 -0.0798886
-0.199342 -0.113591 -0.231078
-0.320272 -0.162653 -0.140367
-0.115275 0.317872 0.0209659
0.000296855 0.312557 -0.100095
0.0580075 0.295769 -0.17439
-0.281556 0.141283 0.0532932
0.0511844 0.194149 -0.250861
0.0508292 0.159138 -0.273127
0.00658147 0.109152 -0.266347
-0.328616 -0.0345224 -0.0359943
-0.0918495 0.0133822 -0.248533
-0.177329 -0.0895223 -0.238206
-0.216195 -0.112226 -0.220698
-0.313567 -0.150115 -0.14431
-0.0256719 0.300539 -0.0887954
0.0294478 0.300798 -0.146146
0.0451881 0.283814 -0.179271
0.046786 0.256593 -0.203067
-0.113807 0.318674 0.0125723
-0.00725802 0.287485 -0.124555
0.0123112 0.280693 -0.154787
0.0379002 0.246895 -0.207593
-0.30601 0.0900808 0.0260364
-0.0244118 0.0931052 -0.263854
-0.0947892 0.0247896 -0.245268
-0.139928 -0.0226114 -0.239857
-0.320317 -0.104853 -0.11663
-0.304189 -0.115936 -0.146044
-0.286969 -0.12858 -0.169392
-0.142042 0.311971 0.0235105
-0.235521 0.20079 0.0361256
0.0241564 0.187582 -0.246599
-0.0272905 0.111281 -0.257798
-0.317272 -0.0143605 -0.0572826
-0.109734 0.0266815 -0.240805
-0.322234 -0.0704973 -0.094608
-0.258013 -0.103174 -0.19081
-0.258089 -0.114731 -0.193491
-0.0504174 0.294878 -0.0941084
-0.00451967 0.268423 -0.159638
-0.240843 0.179159 0.0171607
-0.277158 0.142062 0.0219288
-0.0100818 0.143085 -0.25612
-0.313219 0.00765672 -0.0490432
-0.319675 -0.0309199 -0.0701318
-0.312161 -0.0697335 -0.1146
-0.296758 -0.0937389 -0.148369
-0.274757 -0.105483 -0.176142
-0.0771175 0.306368 -0.0597276
-0.233617 0.21752 0.0279488
-0.00199563 0.261908 -0.176273
-0.242183 0.176383 0.00857983
-0.0534461 0.102642 -0.249484
-0.0909393 0.066983 -0.238897
-0.204295 -0.0500871 -0.216654
-0.265518 -0.0825438 -0.180419
-0.12757 0.316654 -0.00557831
-0.0302972 0.2676 -0.151213
0.00343679 0.244019 -0.19976
-0.118763 0.0485277 -0.233944
-0.306065 -0.0481119 -0.116525
-0.213599 -0.0537409 -0.212813
-0.236491 -0.0663881 -0.201177
-0.227571 0.24117 0.0305446
-0.292693 0.121134 -0.000197988
-0.308135 0.0135402 -0.0699233
-0.147985 0.0228318 -0.228167
-0.171441 -0.00318327 -0.224856
-0.249056 -0.0593694 -0.190197
-0.179728 0.29556 0.0131038
-0.219266 0.255831 0.0312976
-0.01604 0.243909 -0.193577
-0.0159376 0.199848 -0.230578
-0.019621 0.175907 -0.246025
-0.303557 0.0633278 -0.0426514
-0.305862 0.024072 -0.0689893
-0.286524 -0.0417576 -0.144125
-0.200302 0.278883 0.0162312
-0.234204 0.223302 0.0043442
-0.246234 0.16707 -0.0234852
-0.259975 0.142263 -0.0342882
-0.289399 0.0956964 -0.0390875
-0.0526978 0.149139 -0.242557
-0.078894 0.127881 -0.233588
-0.0954454 0.109284 -0.227592
-0.151984 0.0490915 -0.218923
-0.177452 0.0193338 -0.214716
-0.261663 -0.033566 -0.17023
-0.216345 0.260578 0.00996651
-0.0295357 0.231875 -0.20351
-0.0307231 0.19599 -0.230953
-0.0590196 0.148488 -0.239395
-0.294554 0.0505334 -0.073469
-0.169691 0.0430924 -0.211587
-0.204962 0.0117734 -0.200013
-0.249882 -0.0107843 -0.172967
-0.177825 0.298309 -0.00901137
-0.0701202 0.286147 -0.130957
-0.0439651 0.20597 -0.222581
-0.282208 0.0832442 -0.0696749
-0.285373 0.0511042 -0.0918342
-0.280729 0.0277331 -0.113388
-0.276181 0.0161385 -0.127262
-0.271276 0.00734512 -0.139286
-0.22513 0.0123418 -0.185342
-0.183095 0.295273 -0.0118419
-0.054008 0.25736 -0.173676
-0.0518155 0.214393 -0.215679
-0.0664318 0.17138 -0.229383
-0.111379 0.137353 -0.213607
-0.15697 0.091294 -0.200152
-0.172609 0.301696 -0.0206915
-0.127902 0.309495 -0.0673004
-0.232198 0.217201 -0.0267698
-0.230205 0.174495 -0.0682104
-0.0961214 0.153741 -0.219447
-0.168476 0.100354 -0.189335
-0.270947 0.0555277 -0.116065
-0.221227 0.0642858 -0.165086
-0.251253 0.0459002 -0.14614
-0.212897 0.258697 -0.0236606
-0.0631363 0.255697 -0.180022
-0.135445 0.141223 -0.19746
-0.271436 0.0891474 -0.0963704
-0.274449 0.0825212 -0.0965472
-0.192893 0.102374 -0.172211
-0.26394 0.0785728 -0.114588
-0.263739 0.0661184 -0.121935
-0.158576 0.302846 -0.0526185
-0.212748 0.255118 -0.0363177
-0.23962 0.130186 -0.104067
-0.176156 0.140877 -0.165106
-0.206044 0.127245 -0.143308
-0.188335 0.125219 -0.162651
-0.215828 0.112826 -0.144121
-0.209988 0.260092 -0.0441988
-0.0868262 0.216695 -0.20366
-0.198378 0.175273 -0.12187
-0.129408 0.177812 -0.191982
-0.191708 0.1513 -0.145009
-0.189309 0.29168 -0.0399603
-0.221838 0.213533 -0.0707638
-0.214325 0.191543 -0.0936785
-0.116117 0.193323 -0.197628
-0.124406 0.30004 -0.108911
-0.208707 0.26251 -0.0558381
-0.167615 0.180451 -0.16397
-0.165573 0.29361 -0.080394
-0.127533 0.272545 -0.138133
-0.216597 0.228166 -0.0781618
-0.118393 0.230101 -0.179454
-0.146595 0.199209 -0.17687
-0.166198 0.186403 -0.164301
-0.147501 0.278489 -0.115846
-0.14319 0.234617 -0.160235
-0.190928 0.205955 -0.131885
-0.189974 0.280672 -0.0799061
-0.155238 0.255138 -0.142158
-0.175372 0.279053 -0.103662
-0.155867 0.24228 -0.152545
-0.198479 0.237919 -0.117831
-0.179264 0.261321 -0.127272
-0.183363 0.246994 -0.135123
