ply
format ascii 1.0
comment Created by Open3D
element vertex 1649
property double x
property double y
property double z
end_header
0.114263 0.142001 0.058288
0.252001 0.179945 -0.056926
0.301537 0.190369 -0.0960199
0.310568 0.195748 -0.102831
0.107206 0.134327 0.0630427
0.296158 0.186177 -0.0930369
0.30724 0.186988 -0.107199
0.312777 0.191209 -0.110324
0.102594 0.129722 0.0572886
0.247117 0.167669 -0.0630002
0.250801 0.170417 -0.0620045
-0.16557 0.0562987 0.277062
0.295418 0.177426 -0.101999
0.28717 0.172477 -0.0966934
0.0907153 0.116665 0.0647716
0.265727 0.161204 -0.0820072
0.278211 0.166725 -0.0910761
0.299758 0.173396 -0.110324
0.0864163 0.112281 0.0641722
0.258461 0.159937 -0.0759841
0.271749 0.162719 -0.0874524
0.278899 0.164716 -0.0942107
0.282792 0.163662 -0.0999763
0.30221 0.170347 -0.115652
0.280049 0.159963 -0.10031
0.0777149 0.102749 0.0665101
0.243852 0.148396 -0.0755225
0.266853 0.154959 -0.0901392
0.275408 0.156701 -0.0980546
0.277498 0.157182 -0.100003
0.252289 0.146678 -0.0822197
0.270241 0.151608 -0.0970001
0.304782 0.165665 -0.124251
0.304886 0.16601 -0.123693
0.247667 0.142513 -0.0816258
0.281014 0.152601 -0.109141
0.251122 0.140351 -0.086371
0.258109 0.143456 -0.0908146
0.275145 0.149422 -0.104726
-0.179173 0.0254431 0.267615
0.055798 0.0848466 0.0753083
0.250451 0.13935 -0.0867337
0.283048 0.151167 -0.115528
0.0347827 0.0762869 0.0880738
0.0470163 0.081269 0.0784826
0.276307 0.144834 -0.112328
0.253471 0.134012 -0.0957801
-0.198238 -0.0113627 0.258745
-0.20216 -0.0161801 0.257806
-0.00814261 0.0327896 0.0960503
-0.00692526 0.0321977 0.0969233
0.207338 0.0668093 -0.104121
0.212696 0.067374 -0.107933
0.199218 0.0588476 -0.0990257
0.202115 0.0600303 -0.100809
0.205815 0.0575521 -0.104128
0.213912 0.0588736 -0.109835
0.180046 0.04814 -0.0888047
0.199188 0.0484725 -0.102963
-0.237877 -0.0740187 0.247399
0.166031 0.0332333 -0.0848481
0.175982 0.0374454 -0.0900045
0.181032 0.0382831 -0.0933187
0.229966 0.0517403 -0.139104
0.164116 0.0291317 -0.0856227
0.227349 0.0462508 -0.13541
0.0117441 -0.0140317 0.0399599
0.0131784 -0.0162115 0.0411909
0.156731 0.0256047 -0.0822129
0.156135 0.0231662 -0.0832464
-0.242808 -0.083964 0.244275
0.013195 -0.0183778 0.0325601
0.171211 0.0260571 -0.0923903
0.173188 0.0261642 -0.0936206
0.158019 0.0196788 -0.086862
0.225949 0.0371394 -0.144863
0.161761 0.012101 -0.0956702
0.153156 0.00752943 -0.0920338
0.164592 0.0119837 -0.098385
0.188047 0.0145095 -0.11746
0.220772 0.0260972 -0.14853
0.0131972 -0.0300177 0.0199355
0.147718 0.00342299 -0.0920157
0.163752 0.00913789 -0.100506
0.18198 0.012225 -0.115053
0.183107 0.0117225 -0.117844
0.198865 0.0146505 -0.130037
0.00992523 -0.0388971 0.0251898
0.181796 0.0107348 -0.119479
0.194946 0.0127182 -0.129522
0.206576 0.0174121 -0.143118
0.0112358 -0.0387665 0.0178595
0.165971 0.00567955 -0.108498
0.175741 0.00837132 -0.117465
-0.253813 -0.120028 0.230745
0.00844227 -0.0563294 0.0125928
0.0198706 -0.053033 -6.28095e-05
0.0314817 -0.0536768 -0.0126802
0.0989481 -0.0623971 -0.0925657
0.101623 -0.0794839 -0.105084
-0.266608 -0.181916 0.195134
0.100675 -0.118026 -0.135292
0.101534 -0.14285 -0.159892
0.0938522 -0.166609 -0.168402
-0.285529 -0.270783 0.142322
0.093227 -0.167651 -0.17151
-0.285978 -0.276683 0.138008
0.089077 -0.179769 -0.176206
-0.281997 -0.309088 0.112137
0.0785225 -0.213853 -0.18911
0.0709294 -0.229555 -0.196135
0.0680101 -0.238311 -0.198438
0.0691347 -0.234737 -0.197692
0.0630766 -0.248173 -0.203743
0.0582479 -0.257809 -0.206585
0.046967 -0.278991 -0.208498
-0.266437 -0.372006 0.0373192
0.03884 -0.289606 -0.212502
0.0364718 -0.295589 -0.210446
0.0225633 -0.317335 -0.21452
-0.245881 -0.413384 -0.0127511
-0.244043 -0.415269 -0.0148971
-0.242022 -0.417817 -0.0207486
-0.00988733 -0.360608 -0.218379
-0.0270294 -0.382865 -0.213316
-0.0268207 -0.380119 -0.216202
-0.0302717 -0.384662 -0.213761
-0.211159 -0.437475 -0.0667938
-0.206973 -0.438868 -0.0729986
-0.206872 -0.438957 -0.0742477
-0.19674 -0.44157 -0.082162
-0.0513063 -0.402262 -0.205833
-0.0659988 -0.407493 -0.197615
-0.185243 -0.444456 -0.100909
-0.187409 -0.443548 -0.10253
-0.0882735 -0.419457 -0.179768
-0.0743962 -0.411988 -0.190735
-0.15683 -0.44301 -0.130442
-0.102894 -0.427636 -0.169549
-0.152108 -0.442391 -0.135769
-0.144586 -0.442215 -0.13997
-0.127019 -0.43565 -0.157299
0.201304 0.33328 0.112582
0.189098 0.32619 0.120986
0.269562 0.349314 0.0524187
0.15831 0.312013 0.138708
0.169413 0.315487 0.133706
0.290338 0.349019 0.0330311
0.295049 0.347535 0.0306824
0.221021 0.326825 0.0881806
0.145935 0.303072 0.147899
0.23268 0.324801 0.0746489
0.119293 0.290938 0.162288
0.23341 0.319075 0.0718354
0.070686 0.273286 0.197794
0.0780082 0.274199 0.195633
0.0915742 0.278465 0.184471
0.0962316 0.281501 0.178024
0.100028 0.282432 0.175837
0.106658 0.282211 0.175301
0.214565 0.311389 0.0822665
0.441071 0.367166 -0.10465
0.058606 0.268066 0.205183
0.0661061 0.268871 0.203774
0.228044 0.31293 0.0669165
0.0425013 0.260641 0.214285
0.0447715 0.261198 0.213826
0.427438 0.363873 -0.0970384
0.444965 0.363989 -0.118429
0.0225758 0.244516 0.225305
0.371063 0.341047 -0.0620052
0.377521 0.34191 -0.0662278
0.0193407 0.242384 0.226216
0.222187 0.298468 0.0588131
0.0126444 0.23588 0.229116
0.00981742 0.23363 0.229645
0.199988 0.27872 0.0705836
0.435697 0.342852 -0.122659
-0.00573941 0.218993 0.23792
0.194376 0.266685 0.0666518
0.423961 0.328866 -0.117652
0.192805 0.263595 0.0663533
0.415064 0.321013 -0.121552
0.189059 0.25038 0.059066
-0.0599154 0.179191 0.264785
0.196008 0.254398 0.0498964
0.386162 0.292668 -0.107927
-0.0754986 0.164972 0.269601
0.373089 0.281425 -0.104655
0.371685 0.280315 -0.106397
0.368063 0.277298 -0.103469
0.156513 0.208439 0.0617891
0.162236 0.21152 0.0575118
-0.103368 0.138943 0.275765
0.15677 0.207233 0.059703
0.158718 0.206648 0.0563156
0.345682 0.259182 -0.100228
-0.109377 0.131794 0.276648
0.164526 0.206525 0.0503342
0.147181 0.196003 0.0610935
0.15306 0.198394 0.0551299
0.251734 0.221891 -0.0254703
0.256255 0.223452 -0.0281677
0.326181 0.241721 -0.089894
0.145555 0.190381 0.057747
0.152598 0.194324 0.0520725
0.201166 0.203335 0.011723
0.259354 0.221468 -0.0341761
0.142151 0.188262 0.0616356
0.146092 0.188314 0.0550202
0.215049 0.207099 0.000373887
0.266939 0.218373 -0.0454272
0.142047 0.182482 0.0558615
0.205144 0.200394 0.00343863
0.206377 0.199971 0.00156824
0.216859 0.20419 -0.00494454
0.246645 0.212896 -0.029918
0.175993 0.190153 0.0267151
0.182266 0.191098 0.0204775
0.185498 0.192805 0.0184589
0.206729 0.198356 -0.000400068
0.222792 0.201167 -0.0143504
0.231658 0.204885 -0.0196293
0.241821 0.206917 -0.0298577
0.149233 0.180161 0.0443498
0.178488 0.187767 0.0213268
0.233012 0.202439 -0.0239194
0.250136 0.206962 -0.0394344
0.262873 0.210214 -0.0497809
0.166694 0.182554 0.0285816
0.180062 0.184826 0.0166621
0.186251 0.18613 0.0109685
0.205637 0.1935 -0.00357943
0.226905 0.196936 -0.022725
0.263315 0.209258 -0.0508359
0.266373 0.20907 -0.0535278
0.151021 0.174987 0.0384202
0.174009 0.179371 0.0182844
0.18191 0.183332 0.0132564
0.22016 0.191649 -0.0202618
0.246496 0.19936 -0.0416159
0.250272 0.201371 -0.0439
0.251418 0.20123 -0.0451142
0.264193 0.20472 -0.0540849
0.271837 0.208932 -0.0573986
0.14624 0.168972 0.0392061
0.159546 0.174002 0.0288357
0.207696 0.187479 -0.010724
0.218172 0.188429 -0.0209248
0.249498 0.199345 -0.0446261
0.142333 0.162924 0.0394989
0.146976 0.167485 0.0371288
0.194119 0.179069 -0.00376256
0.176934 0.172157 0.00777389
0.184264 0.175863 0.00377155
0.201526 0.178915 -0.0121651
0.219446 0.183504 -0.0268633
0.236671 0.187224 -0.0410022
0.252477 0.192459 -0.0514672
0.257916 0.194816 -0.054085
-0.145862 0.0829521 0.275957
0.147826 0.162134 0.0310365
0.181016 0.172619 0.00362201
0.193946 0.174944 -0.00827903
0.193281 0.173565 -0.00935477
0.199302 0.173981 -0.0159967
0.215938 0.177524 -0.0301828
0.220894 0.177048 -0.0357036
0.232083 0.181406 -0.0415081
0.122413 0.146884 0.0485617
0.125056 0.148069 0.0463477
0.140672 0.15452 0.0315613
0.146676 0.156373 0.0214495
0.230985 0.17919 -0.0426619
0.240187 0.180636 -0.0495772
-0.1604 0.0699411 0.276293
0.117434 0.142268 0.0463917
0.135921 0.150871 0.0330669
0.134766 0.149816 0.032449
0.22784 0.175823 -0.0435565
0.23065 0.174282 -0.0479237
0.245563 0.175581 -0.0566897
0.243233 0.178843 -0.0531805
0.316883 0.198007 -0.117082
0.111558 0.137827 0.0488949
0.127999 0.145987 0.0347641
0.131074 0.147624 0.033706
0.239896 0.17542 -0.0538084
0.312341 0.195928 -0.12044
0.3127 0.189979 -0.118783
-0.167404 0.0547651 0.276019
0.311477 0.187598 -0.119369
0.239155 0.148509 -0.0753898
0.305215 0.167513 -0.125226
-0.182734 0.0281727 0.265275
0.0677967 0.094117 0.0576245
0.036713 0.0764824 0.083477
0.0508948 0.0820333 0.0708333
0.0618351 0.0892467 0.0594239
0.0203756 0.0692663 0.0927841
0.0227084 0.0703036 0.0919659
0.241122 0.133902 -0.0891914
0.267084 0.13738 -0.108661
0.0495527 0.081179 0.0641584
0.269367 0.136748 -0.114108
0.00801849 0.0629131 0.0966009
0.0174984 0.0675151 0.0909518
0.0232522 0.0692957 0.0823172
0.263795 0.132212 -0.113338
0.270833 0.135942 -0.121094
0.00482063 0.0608446 0.0982243
0.0153784 0.0653214 0.0881625
0.0164797 0.0656696 0.0861768
0.0361144 0.0732576 0.0702572
0.245036 0.127516 -0.102788
0.262127 0.130149 -0.117253
0.00892469 0.0606136 0.0907668
-0.00835572 0.0466025 0.104096
0.00115587 0.055491 0.0965622
-0.00977652 0.0409676 0.101018
-0.0082176 0.0366687 0.0930549
-0.214574 -0.0322707 0.255626
0.170144 0.0593626 -0.0805013
0.193247 0.0616895 -0.093802
0.172938 0.0465172 -0.0841537
0.176162 0.0484948 -0.085792
0.16305 0.0412583 -0.0791712
0.16164 0.0424705 -0.0778307
-0.238463 -0.0724275 0.246631
0.14472 0.0303079 -0.0711109
-0.240991 -0.0757891 0.245117
0.119298 0.0178266 -0.0576266
0.134763 0.0210777 -0.0682927
-0.244792 -0.0821487 0.242363
0.105886 0.0106672 -0.0512925
0.0965494 0.00587318 -0.0484027
0.106045 0.00612676 -0.0525513
0.10724 0.00554173 -0.0535708
0.120989 0.00753921 -0.0642868
0.143784 0.0161995 -0.0789146
0.0911647 -0.00367686 -0.047819
0.146185 0.0108128 -0.0844264
0.226467 0.0314069 -0.152987
0.228736 0.0335902 -0.154848
0.013688 -0.0282779 0.018857
0.0963268 -0.0042411 -0.0502898
0.116947 5.85641e-05 -0.0656324
0.229326 0.0303153 -0.159964
0.088437 -0.0100661 -0.0483091
0.107061 -0.00355564 -0.0585242
0.122428 -0.00240495 -0.0734696
0.22106 0.0232419 -0.154359
0.231328 0.0298789 -0.166116
0.105781 -0.00850162 -0.0608802
0.21591 0.0198596 -0.152936
0.223055 0.0224513 -0.159597
0.224895 0.0245151 -0.159211
0.224181 0.0237587 -0.159199
0.084363 -0.0153982 -0.0481726
0.109416 -0.0100364 -0.0661771
-0.255938 -0.111693 0.230669
0.0938169 -0.0178935 -0.0545844
0.14033 -0.00129312 -0.0974395
0.146897 0.000500633 -0.101125
0.166648 0.00500416 -0.115969
0.0206507 -0.0398254 -0.00111503
0.0810533 -0.0261871 -0.047698
0.0940215 -0.0205194 -0.0554864
0.0985754 -0.0192563 -0.0593459
0.0739678 -0.0285988 -0.0453487
0.0943512 -0.0221966 -0.0560924
0.0984931 -0.0233018 -0.0601753
0.118689 -0.0127217 -0.0858722
-0.258809 -0.120008 0.225711
0.0730125 -0.0349856 -0.0441825
0.0271918 -0.0470584 -0.00985579
0.0282187 -0.0511129 -0.00994752
0.0417116 -0.0460605 -0.0268239
0.0982415 -0.0579995 -0.0927256
0.0996085 -0.0678179 -0.100032
-0.269205 -0.167528 0.200679
-0.269575 -0.172438 0.19665
0.100603 -0.0826628 -0.114726
0.100322 -0.086159 -0.118543
0.100131 -0.0921131 -0.124396
-0.272489 -0.198493 0.182322
-0.278276 -0.214867 0.171061
-0.280943 -0.230247 0.165916
0.103061 -0.131065 -0.151464
-0.282825 -0.237318 0.159875
-0.284333 -0.239603 0.156199
0.10298 -0.1363 -0.160335
0.0903608 -0.174617 -0.177912
-0.288832 -0.284891 0.126356
0.0853966 -0.191699 -0.18646
-0.287619 -0.297529 0.11562
-0.286513 -0.300607 0.114096
0.0821062 -0.201255 -0.191319
-0.287694 -0.30229 0.109717
0.0766137 -0.215253 -0.193243
0.0780038 -0.211268 -0.193862
0.0739606 -0.221088 -0.19443
0.0714092 -0.22719 -0.196405
0.0674764 -0.231893 -0.203669
-0.277481 -0.334235 0.0757389
0.0535201 -0.26255 -0.212125
-0.26899 -0.363654 0.0463789
0.0403001 -0.282949 -0.216017
-0.265777 -0.37603 0.0299373
-0.265158 -0.378341 0.0264084
0.0203925 -0.314552 -0.219408
0.00721736 -0.334542 -0.21917
-0.244025 -0.418104 -0.0286714
-0.010078 -0.358591 -0.220224
-0.229116 -0.427155 -0.0430163
-0.223272 -0.432528 -0.0565153
-0.221291 -0.435099 -0.0671136
-0.202168 -0.440235 -0.0871676
-0.202187 -0.44022 -0.0890158
-0.0594182 -0.40457 -0.202668
-0.0885821 -0.414736 -0.185632
-0.188701 -0.442897 -0.104935
-0.113157 -0.428355 -0.168049
-0.162987 -0.441944 -0.1299
-0.158056 -0.441917 -0.133421
-0.125113 -0.434292 -0.159588
0.197631 0.337001 0.107798
0.188661 0.330492 0.116147
0.171314 0.319557 0.128405
0.168674 0.318752 0.129549
0.14681 0.306624 0.144135
0.151385 0.310533 0.140228
0.154512 0.312583 0.138006
0.226586 0.327706 0.0758088
0.227274 0.321357 0.0720456
0.104488 0.287382 0.168501
0.0590856 0.271423 0.200731
0.336715 0.341605 -0.0239737
0.045955 0.265133 0.209181
0.209004 0.304969 0.0790359
0.426272 0.365372 -0.100019
0.356624 0.339831 -0.0484163
0.362648 0.339271 -0.0525832
0.445553 0.361568 -0.13041
0.444239 0.357683 -0.13087
-0.00454742 0.226584 0.231095
0.216002 0.285483 0.0485321
-0.0418128 0.198885 0.251164
-0.0447587 0.199631 0.250602
0.189813 0.252249 0.0479561
-0.0801329 0.168023 0.267344
0.386001 0.294509 -0.120573
-0.085118 0.160861 0.269848
0.374529 0.283284 -0.118253
0.368236 0.277997 -0.117565
-0.103996 0.144497 0.271724
-0.098369 0.149407 0.271393
0.35612 0.267017 -0.111014
0.341605 0.255834 -0.102207
0.325377 0.239115 -0.0958033
0.324152 0.23493 -0.10087
-0.139151 0.0954836 0.27305
-0.151804 0.08323 0.273025
-0.153736 0.080761 0.273774
0.169998 0.165445 0.00400616
0.191567 0.170651 -0.0120517
0.187454 0.167383 -0.0134592
0.191391 0.166976 -0.0190502
-0.164841 0.0679788 0.274278
0.118105 0.141238 0.0407057
0.226581 0.172238 -0.0469865
0.211069 0.167152 -0.0406201
0.219324 0.168351 -0.0460767
0.221822 0.168502 -0.0479445
-0.17173 0.0608787 0.272142
0.226356 0.16612 -0.0546019
0.231494 0.16591 -0.0584344
0.222425 0.16167 -0.0572279
0.231681 0.159875 -0.0647782
0.230698 0.158762 -0.065456
0.23291 0.150557 -0.0738886
-0.181103 0.034949 0.267231
0.230298 0.147028 -0.0765011
0.287951 0.156351 -0.12284
0.234957 0.133304 -0.0907236
0.241369 0.132962 -0.0905765
0.279981 0.145587 -0.128894
0.272186 0.137067 -0.122431
0.0168736 0.0652433 0.0802319
0.0244362 0.06974 0.0742909
0.0168918 0.0653605 0.0786701
0.257865 0.127802 -0.119341
0.00545587 0.0561776 0.0893977
0.00844983 0.057643 0.0836142
-0.000454323 0.0449026 0.081143
-0.00435819 0.0359246 0.0795277
-0.00428932 0.0253768 0.0697258
0.211355 0.0754069 -0.113045
0.208017 0.0725953 -0.10669
-0.000700261 0.0130622 0.0572167
0.155675 0.0518889 -0.075451
0.158978 0.0520673 -0.0762996
0.21646 0.0712636 -0.116583
-0.000889517 0.00653098 0.0581518
0.223055 0.0672085 -0.126399
0.225465 0.0654839 -0.130528
0.226883 0.0661072 -0.133756
0.00104189 0.00508722 0.0518015
0.141027 0.0391127 -0.067402
0.00885947 -0.00690749 0.03328
0.0101191 -0.0111573 0.0357708
0.111395 0.017459 -0.0529382
-0.24824 -0.0783747 0.238948
0.0128143 -0.0168796 0.0253336
0.0965968 0.0101686 -0.0485483
0.01438 -0.0152252 0.0160484
0.236371 0.0407885 -0.16573
-0.255091 -0.0923776 0.233719
-0.255881 -0.100752 0.23289
-0.256579 -0.103717 0.231818
0.2004 0.0181491 -0.150566
0.0749152 -0.0193183 -0.0462497
0.142353 -0.000447789 -0.101751
0.169812 0.00795755 -0.122941
0.210525 0.0182185 -0.159625
0.2157 0.0187054 -0.164024
0.220709 0.0197803 -0.16561
0.0650826 -0.0252864 -0.0439359
0.0299775 -0.0395415 -0.0150968
0.112407 -0.0163235 -0.0852582
0.0477481 -0.039134 -0.0335315
-0.265595 -0.134791 0.216857
-0.26718 -0.136831 0.214622
0.0999347 -0.0371819 -0.0857182
0.0977001 -0.0608431 -0.10247
0.09852 -0.065401 -0.108443
0.0998895 -0.0742685 -0.112753
-0.272791 -0.179841 0.187892
0.0995437 -0.0890456 -0.126688
-0.274816 -0.195174 0.180217
-0.276412 -0.197061 0.177623
-0.281217 -0.210876 0.168321
-0.283386 -0.214974 0.165561
-0.282697 -0.224668 0.16522
0.105132 -0.119238 -0.162454
-0.28709 -0.23892 0.152426
0.101506 -0.140426 -0.169762
0.102716 -0.136027 -0.171395
-0.288009 -0.247253 0.147604
-0.290564 -0.263995 0.138518
0.094551 -0.159729 -0.180884
0.0924037 -0.166233 -0.182491
-0.289474 -0.275445 0.133168
0.0893198 -0.174588 -0.18737
-0.291441 -0.284389 0.1221
-0.291633 -0.286456 0.119785
-0.28937 -0.294506 0.11566
-0.290773 -0.299945 0.106653
-0.282733 -0.327704 0.0754554
0.0549219 -0.255085 -0.214311
0.0543239 -0.260122 -0.21236
0.0420857 -0.277022 -0.217938
-0.271676 -0.366766 0.0346888
-0.266988 -0.375098 0.0287667
-0.261618 -0.391995 0.00529955
-0.259182 -0.396115 0.00214385
0.00702526 -0.327843 -0.224013
-0.251268 -0.410316 -0.0183289
-0.0192302 -0.363435 -0.224281
-0.0230514 -0.367717 -0.223935
-0.0212863 -0.367984 -0.222976
-0.03657 -0.380569 -0.220454
-0.22553 -0.434169 -0.0670133
-0.0437396 -0.384819 -0.219028
-0.221569 -0.435796 -0.0740657
-0.072372 -0.403621 -0.200673
-0.194509 -0.441685 -0.0986533
-0.0961405 -0.415012 -0.18515
-0.185799 -0.442149 -0.114479
-0.181777 -0.44179 -0.119675
-0.160253 -0.44019 -0.138009
-0.156969 -0.438433 -0.143363
-0.133583 -0.433135 -0.159762
0.202097 0.340337 0.10138
0.211636 0.339829 0.0974308
0.235844 0.349708 0.0731634
0.177062 0.327999 0.117999
0.281604 0.353083 0.0321205
0.28692 0.353027 0.0251446
0.146729 0.312013 0.138071
0.146321 0.313274 0.136525
0.153614 0.31323 0.1372
0.134008 0.303034 0.146928
0.301369 0.350091 0.00852589
0.303894 0.34985 0.0052382
0.313717 0.348149 -0.00524765
0.216159 0.318984 0.0731056
0.102708 0.287728 0.16814
0.319025 0.347153 -0.0143927
0.323187 0.346919 -0.0226937
0.330764 0.344509 -0.0252046
0.0454274 0.26757 0.205996
0.336393 0.344954 -0.0333735
0.42678 0.368805 -0.106945
0.0298706 0.255413 0.217192
0.0281435 0.256564 0.215606
0.445737 0.367205 -0.129519
0.0194994 0.250248 0.219052
0.371014 0.344498 -0.0679937
0.215015 0.297606 0.054572
0.444668 0.35973 -0.132307
0.00286931 0.235621 0.225388
-0.00155708 0.230702 0.228008
0.43117 0.345367 -0.135028
-0.02346 0.218585 0.238402
0.427254 0.339684 -0.13274
-0.0313878 0.21101 0.242667
-0.0274452 0.214049 0.24117
0.421291 0.332733 -0.132958
-0.0400586 0.202135 0.248627
0.402136 0.309902 -0.124342
-0.0728117 0.182496 0.261476
0.395927 0.305667 -0.127539
0.396114 0.305777 -0.12738
-0.0830613 0.170029 0.265939
0.374492 0.283579 -0.122187
0.353678 0.264975 -0.114227
-0.112567 0.140744 0.268752
0.34866 0.260801 -0.114797
0.337314 0.251382 -0.110324
0.328806 0.242556 -0.107535
0.323421 0.229828 -0.107029
0.323057 0.228404 -0.111056
0.322903 0.230218 -0.115928
-0.155167 0.0820662 0.272265
-0.167237 0.0756448 0.269265
0.147686 0.157407 0.0129005
0.153363 0.160083 0.00891931
0.159173 0.16198 0.00475167
0.160903 0.162377 0.00204271
0.191571 0.165855 -0.0215103
0.121821 0.141484 0.0298997
0.184696 0.161428 -0.0226388
0.306417 0.192362 -0.124166
0.111115 0.135001 0.0366445
0.110221 0.134467 0.0380085
0.113074 0.135842 0.0317618
0.217723 0.162147 -0.0530013
0.203427 0.158609 -0.0458696
0.0996395 0.125094 0.0397593
0.209292 0.156075 -0.0543564
-0.183126 0.0463445 0.267272
0.230923 0.141903 -0.0813646
0.290447 0.163206 -0.133417
0.222563 0.136223 -0.0847402
-0.190632 0.0207415 0.25977
0.0499989 0.0829213 0.0566814
0.233117 0.127324 -0.101449
0.0138789 0.0628894 0.0760475
0.250512 0.126261 -0.11551
0.266865 0.132058 -0.130242
0.254962 0.12694 -0.122506
0.260305 0.128535 -0.124193
0.257982 0.127726 -0.12414
0.255804 0.127236 -0.125768
0.26562 0.13124 -0.131897
0.00867574 0.0572411 0.0763148
0.000241324 0.0423923 0.0733588
-0.216044 -0.0192298 0.249899
-0.217869 -0.0267695 0.251447
-0.223766 -0.0296746 0.24798
0.00250008 0.0304232 0.0595206
0.209828 0.0793781 -0.113205
0.00374302 0.0224256 0.0534642
0.224042 0.079414 -0.131251
0.00351624 0.013419 0.0490288
0.238475 0.0739346 -0.150977
-0.239838 -0.0571416 0.242085
0.236056 0.0713512 -0.148052
0.128621 0.0365958 -0.0616992
-0.244369 -0.0629724 0.239766
0.115041 0.0320704 -0.0557505
0.107853 0.0277431 -0.0523791
0.00883148 -0.00276835 0.0311171
0.104141 0.0229441 -0.0507237
-0.247323 -0.0770605 0.239701
0.0113761 -0.00458284 0.0239087
0.100869 0.0171511 -0.0496076
0.240598 0.0564066 -0.163415
0.0164123 -0.0168818 0.00944247
0.0164554 -0.0180792 0.00937503
0.0867831 0.00167768 -0.0474831
0.0177527 -0.0208749 0.00580926
0.19204 0.0168378 -0.141249
0.17905 0.0132084 -0.130292
0.0279997 -0.0282335 -0.0135305
0.135359 -0.00180949 -0.103917
0.215437 0.018672 -0.164436
0.228067 0.023789 -0.174726
0.128101 -0.00666481 -0.0971167
0.1313 -0.00493782 -0.0988989
0.0400057 -0.0332962 -0.0280682
0.040113 -0.0339497 -0.0280691
0.0529123 -0.029181 -0.0383169
0.0587418 -0.0265529 -0.0415651
0.0480631 -0.0328597 -0.0347639
0.10537 -0.020921 -0.0880824
-0.266118 -0.125397 0.217956
0.101081 -0.0287625 -0.08757
0.0966806 -0.056434 -0.101597
0.0970536 -0.0614829 -0.113981
0.098797 -0.0705022 -0.116044
-0.277058 -0.184366 0.180812
0.0980328 -0.0806759 -0.129369
-0.278386 -0.193967 0.176099
0.101599 -0.107156 -0.149496
-0.287759 -0.23948 0.151125
0.0977904 -0.149395 -0.17892
0.0971914 -0.151629 -0.17788
0.0846515 -0.186441 -0.19803
-0.290904 -0.295077 0.112074
0.0823714 -0.191427 -0.201103
0.0814225 -0.197036 -0.198731
-0.288674 -0.31603 0.0886391
-0.287442 -0.319539 0.0831774
0.0557246 -0.246109 -0.217865
-0.278617 -0.348925 0.0491332
-0.276286 -0.359739 0.0365337
0.0260778 -0.296011 -0.222624
0.0217304 -0.301104 -0.2242
0.01897 -0.306972 -0.224299
-0.261846 -0.395165 -0.0029045
-0.257626 -0.403433 -0.0137761
-0.000217696 -0.334058 -0.225385
-0.254882 -0.408488 -0.0223105
-0.240612 -0.424851 -0.0469129
-0.226649 -0.434243 -0.0694081
-0.0565476 -0.392098 -0.215245
-0.075981 -0.399746 -0.203606
-0.0718346 -0.399577 -0.204869
-0.0892987 -0.409422 -0.19193
-0.18828 -0.441104 -0.116424
-0.186991 -0.440503 -0.120248
-0.177297 -0.441464 -0.123709
-0.174338 -0.440865 -0.127636
-0.121102 -0.423246 -0.174105
0.20702 0.343135 0.0939765
0.17888 0.333479 0.111283
0.222433 0.341257 0.079625
0.177572 0.329255 0.116486
0.284838 0.355157 0.0204629
0.297261 0.352007 0.00869493
0.0675367 0.28099 0.186861
0.0850288 0.286281 0.17268
0.427518 0.371439 -0.113473
0.432861 0.372695 -0.118595
0.0294604 0.262136 0.210153
0.341218 0.346087 -0.0453382
0.347895 0.344509 -0.0508538
0.358438 0.344629 -0.0608279
0.365702 0.346123 -0.0680709
0.382383 0.350884 -0.0811744
0.0145995 0.251273 0.216236
0.208519 0.302629 0.0533368
-0.00267917 0.235118 0.224657
-0.00723929 0.23204 0.226914
-0.0316785 0.215665 0.239307
0.212271 0.277739 0.0370331
-0.0462595 0.205892 0.245607
-0.047495 0.202921 0.248019
0.405468 0.316169 -0.133563
0.184081 0.254248 0.0535818
0.399348 0.310903 -0.135523
0.394875 0.305106 -0.128859
0.389254 0.299527 -0.126716
0.37451 0.283727 -0.123642
0.369077 0.279205 -0.125421
0.365847 0.276325 -0.125704
-0.120991 0.134147 0.268605
0.347309 0.259604 -0.116829
0.340695 0.253922 -0.116258
0.337397 0.251202 -0.112917
-0.128458 0.123014 0.26802
0.325348 0.235764 -0.114194
0.326844 0.238375 -0.115791
-0.138567 0.109631 0.265422
-0.139021 0.111561 0.264119
0.320751 0.22099 -0.116153
0.319257 0.219132 -0.119005
0.318796 0.218119 -0.119523
-0.15447 0.0902876 0.26717
0.312466 0.206377 -0.124319
0.161606 0.161373 -0.0069355
0.303015 0.191299 -0.127872
-0.177615 0.0590225 0.269205
0.191191 0.157045 -0.036444
-0.178087 0.0564792 0.269452
0.196103 0.156324 -0.042308
0.188915 0.152068 -0.0418566
0.202233 0.154734 -0.0501853
0.102013 0.126176 0.0272951
0.193937 0.151757 -0.0468318
0.0930403 0.119332 0.0334153
0.212359 0.151036 -0.0629855
0.292292 0.16761 -0.134838
0.0701882 0.100868 0.0417818
0.213527 0.141207 -0.0747804
-0.193953 0.0302911 0.257805
0.0634523 0.0956321 0.0443932
0.220706 0.137231 -0.0828113
-0.194781 0.0261811 0.257161
-0.19656 0.0241708 0.256043
-0.194004 0.0219548 0.257638
0.221893 0.134405 -0.0868687
0.224067 0.1322 -0.0906982
-0.198039 0.0142888 0.25559
0.224839 0.12804 -0.0984334
0.229006 0.125839 -0.105527
0.238578 0.125335 -0.112821
0.246313 0.125694 -0.120865
0.275752 0.138082 -0.145719
0.260971 0.128885 -0.135339
0.00815699 0.056363 0.0674146
0.00197278 0.0420634 0.0675917
0.00417104 0.0436793 0.0635954
0.00595439 0.0431313 0.0592052
0.196436 0.0848909 -0.103707
0.00671929 0.0306727 0.0519682
0.00899677 0.0331148 0.0490015
0.176797 0.0744428 -0.0851352
0.200316 0.0828453 -0.104863
0.00996206 0.0289299 0.0451248
0.172112 0.0729449 -0.083751
0.227323 0.0867009 -0.135406
0.156014 0.0589961 -0.0788458
0.157031 0.0615479 -0.0802968
0.150458 0.0537602 -0.075286
0.152322 0.0567443 -0.0773173
0.23999 0.0799933 -0.152195
0.00950451 0.009786 0.0341684
-0.244622 -0.0627989 0.239502
0.11428 0.0343179 -0.0560801
0.10131 0.0267871 -0.0508502
0.245653 0.0657894 -0.168184
-0.250904 -0.0749575 0.236053
0.0126538 -0.00538384 0.0198467
0.014805 -0.00916324 0.0131734
0.0163821 -0.0108197 0.00867515
-0.255025 -0.0862724 0.233181
0.0858927 0.00441478 -0.048635
0.0774739 -0.00124203 -0.0489376
0.237999 0.0411021 -0.180928
0.0757966 -0.00325895 -0.0484858
0.0327732 -0.0242723 -0.0210407
-0.265724 -0.103539 0.223743
0.0303375 -0.0267993 -0.0171619
0.0371372 -0.0255262 -0.026238
0.141603 0.00277141 -0.110914
0.201545 0.0185668 -0.159619
0.228056 0.0253369 -0.180049
-0.264133 -0.109016 0.223719
0.127529 -0.00590084 -0.099769
0.226278 0.0252261 -0.184888
0.0430181 -0.029187 -0.0314487
0.114483 -0.0127374 -0.093504
-0.271963 -0.130546 0.2104
0.0977033 -0.0347592 -0.093356
-0.272666 -0.136283 0.208339
-0.276886 -0.142353 0.2029
0.0949436 -0.0495638 -0.103501
0.0958468 -0.0534309 -0.103043
0.0945837 -0.0537331 -0.113112
0.0969191 -0.060567 -0.112602
-0.277523 -0.162657 0.191348
0.0966035 -0.0635339 -0.120809
-0.27657 -0.172505 0.186341
-0.278962 -0.178407 0.18055
0.0969664 -0.0774533 -0.131617
0.0974892 -0.0801849 -0.132131
-0.285903 -0.207994 0.163698
-0.290044 -0.237033 0.148926
0.103518 -0.131831 -0.179712
0.100438 -0.139301 -0.183323
0.0980944 -0.146973 -0.18278
-0.295249 -0.282718 0.116643
0.0856232 -0.180204 -0.200259
0.0832293 -0.184809 -0.204037
0.0808881 -0.192193 -0.204661
0.0757404 -0.200666 -0.210456
-0.289599 -0.319065 0.0772466
0.0641747 -0.224524 -0.214136
-0.287289 -0.323444 0.0727344
0.0616831 -0.231424 -0.215301
0.0535242 -0.249495 -0.219047
0.0476423 -0.254398 -0.22342
-0.279113 -0.350201 0.0459216
-0.276423 -0.360693 0.0345477
0.0257173 -0.28981 -0.226686
0.0183192 -0.30487 -0.225753
0.000354107 -0.325056 -0.229332
-0.00161945 -0.329177 -0.228653
-0.2569 -0.409826 -0.0305189
-0.0248571 -0.354224 -0.228671
-0.252382 -0.417401 -0.0402252
-0.0283656 -0.357783 -0.228227
-0.248535 -0.420719 -0.0436297
-0.2344 -0.432109 -0.0674775
-0.233457 -0.432681 -0.0705417
-0.218213 -0.436941 -0.086088
-0.0808236 -0.397629 -0.204479
-0.0708856 -0.393818 -0.21021
-0.215717 -0.437019 -0.0942836
-0.210534 -0.438217 -0.0964948
-0.20877 -0.437991 -0.102082
-0.0954612 -0.406087 -0.195141
-0.11221 -0.415082 -0.184263
-0.107836 -0.414959 -0.184914
-0.182315 -0.438938 -0.129284
-0.180469 -0.438556 -0.131878
-0.171681 -0.438919 -0.137712
-0.162212 -0.436646 -0.146601
-0.160004 -0.435862 -0.148317
-0.171335 -0.437637 -0.141998
0.206535 0.346363 0.0873368
0.22038 0.345147 0.0789374
0.162833 0.326218 0.119131
0.157824 0.322657 0.124288
0.278175 0.357068 0.021908
0.289982 0.35531 0.00822297
0.136683 0.31213 0.136085
0.115794 0.302188 0.146172
0.104845 0.297113 0.153802
0.114814 0.29847 0.151766
0.315398 0.350177 -0.0220549
0.0546779 0.276328 0.193667
0.0594153 0.277846 0.191674
0.0586431 0.278942 0.189939
0.320095 0.348812 -0.0253507
0.332756 0.347663 -0.0377127
0.40697 0.367621 -0.104053
0.431758 0.374179 -0.12177
0.437416 0.376017 -0.128627
0.352502 0.346935 -0.061934
0.362524 0.349618 -0.072721
0.373445 0.350995 -0.0792068
0.372462 0.351193 -0.0792481
0.378787 0.35412 -0.0857559
0.195682 0.297851 0.061035
0.00320241 0.246389 0.216255
0.00720718 0.24748 0.216829
-0.0202207 0.231396 0.227997
-0.01537 0.231786 0.227582
0.207186 0.291193 0.0437104
-0.0475982 0.207804 0.243957
-0.0538759 0.204066 0.24696
0.197855 0.26131 0.0284215
0.178685 0.255107 0.0450375
0.183389 0.250081 0.0379587
0.393734 0.305034 -0.132794
0.393604 0.30657 -0.139606
0.390014 0.301952 -0.135316
-0.119618 0.141071 0.264723
0.360019 0.270862 -0.127645
0.34737 0.259109 -0.128082
-0.170388 0.0763475 0.266752
0.157069 0.157404 -0.0160569
0.124943 0.142905 0.0137359
0.161691 0.155637 -0.0190911
-0.186912 0.0574719 0.264308
0.300929 0.191233 -0.133973
-0.187192 0.0554834 0.264651
0.177293 0.145854 -0.0412937
0.184121 0.145743 -0.0468164
0.192312 0.146309 -0.0529524
0.295273 0.175675 -0.141459
0.19616 0.142515 -0.0612071
0.294882 0.173416 -0.143407
0.0769987 0.106983 0.0371365
0.193606 0.140856 -0.0612424
0.0816906 0.111357 0.026883
0.194209 0.135879 -0.0681587
0.205842 0.136465 -0.0760213
-0.199536 0.0269709 0.254075
0.202563 0.134749 -0.075981
0.205826 0.13322 -0.0802263
0.0407505 0.0808845 0.0523711
0.208824 0.126912 -0.0913655
0.288367 0.15006 -0.156334
0.215245 0.126054 -0.0974214
0.240581 0.125035 -0.118672
0.268118 0.131978 -0.14395
0.268256 0.131824 -0.145152
0.276985 0.136017 -0.155637
-0.210003 0.00172161 0.248194
0.253296 0.125404 -0.137215
-0.214155 -0.00285506 0.245964
-0.22525 -0.0245466 0.244961
0.177619 0.0833021 -0.0926755
0.184549 0.0853963 -0.0979669
0.201971 0.0901664 -0.112582
0.222266 0.0973936 -0.129087
-0.227369 -0.026226 0.243761
0.0163487 0.0409932 0.039925
0.170594 0.0779893 -0.0864256
0.175231 0.0800316 -0.0883344
0.188585 0.0844478 -0.0983185
0.219981 0.0942425 -0.127006
0.23048 0.096661 -0.13867
0.228788 0.0960033 -0.136773
0.222601 0.0917556 -0.129875
-0.23256 -0.033143 0.241547
0.161175 0.0702266 -0.0844379
0.226789 0.0903926 -0.134791
0.24016 0.0945152 -0.150159
-0.234731 -0.0381798 0.241369
0.15581 0.0637903 -0.0817511
0.252206 0.0890337 -0.165629
0.0173245 0.0263799 0.0273784
0.147628 0.0595704 -0.0789772
0.118117 0.0454011 -0.0627601
0.254489 0.0860881 -0.171045
0.0141564 0.0164786 0.0260567
0.125554 0.0443264 -0.0638769
0.109424 0.0361483 -0.0552222
0.251437 0.0710791 -0.182328
0.0142479 -0.00176847 0.0138644
0.245672 0.0596004 -0.177026
0.246295 0.0595151 -0.185602
0.244021 0.0550584 -0.187405
0.0211381 -0.0115989 -0.0042035
0.0230065 -0.0121079 -0.00930978
0.0244195 -0.0118927 -0.0133814
0.0595991 -0.00855046 -0.0455203
0.178086 0.0192732 -0.139202
0.0312738 -0.0214847 -0.019739
0.0574541 -0.0165585 -0.0428664
0.151911 0.00823538 -0.120094
0.18801 0.0204146 -0.156488
0.229847 0.0299163 -0.186749
0.130921 0.000987734 -0.110968
0.19363 0.0194748 -0.160458
0.119249 -0.00780986 -0.100362
0.104162 -0.018168 -0.094033
-0.271453 -0.118742 0.213499
0.101278 -0.0192064 -0.0964767
0.0980775 -0.0295101 -0.0943226
0.0975936 -0.0277895 -0.0960348
0.0944415 -0.0497886 -0.106175
-0.279509 -0.152591 0.195291
-0.280145 -0.167962 0.183553
-0.280992 -0.178489 0.177986
0.0953879 -0.078888 -0.140191
-0.284961 -0.190983 0.169073
0.098569 -0.0938428 -0.15518
0.101689 -0.100315 -0.161125
-0.288792 -0.206534 0.160788
0.104375 -0.105933 -0.167167
0.10381 -0.104085 -0.167927
0.106104 -0.110346 -0.17142
-0.292366 -0.221993 0.154007
0.105066 -0.125401 -0.181284
0.10464 -0.119612 -0.184767
0.103397 -0.125189 -0.186297
0.100385 -0.133619 -0.188301
-0.294622 -0.242283 0.139959
-0.297268 -0.267042 0.12645
0.0914469 -0.161784 -0.195059
0.0858661 -0.175875 -0.202506
0.0813323 -0.185277 -0.207946
0.0686361 -0.212146 -0.214033
0.0663857 -0.216992 -0.214354
-0.286208 -0.334432 0.0561855
0.0405271 -0.26191 -0.227092
0.0361844 -0.270679 -0.227646
0.027687 -0.283217 -0.228584
-0.273524 -0.376554 0.0066343
0.000795324 -0.321344 -0.230536
-0.00440354 -0.324951 -0.231717
-0.0096589 -0.334289 -0.230648
-0.261938 -0.403091 -0.0269107
-0.023683 -0.347071 -0.230548
-0.020621 -0.346189 -0.230157
-0.254318 -0.417722 -0.0446435
-0.0355882 -0.362046 -0.227834
-0.244817 -0.426711 -0.0577394
-0.246822 -0.426241 -0.0617217
-0.241565 -0.429132 -0.0645175
-0.0762701 -0.394316 -0.208318
-0.0967483 -0.403367 -0.197595
-0.206637 -0.436927 -0.110046
-0.189767 -0.437652 -0.127232
-0.168543 -0.435841 -0.146949
0.183178 0.339859 0.103099
0.237921 0.356466 0.0586557
0.173755 0.333347 0.110171
0.260389 0.358155 0.0369139
0.262576 0.357582 0.0372454
0.145263 0.320018 0.127017
0.294495 0.354548 0.00207588
0.295424 0.355207 -0.00375112
0.114406 0.301304 0.147366
0.108368 0.299888 0.149056
0.0684267 0.285936 0.177291
0.0776184 0.288577 0.16938
0.0368726 0.271227 0.199789
0.418576 0.372499 -0.115457
0.426377 0.375614 -0.12383
0.390417 0.361317 -0.0969465
0.397662 0.364324 -0.0997589
0.34547 0.348756 -0.0608782
0.356849 0.348793 -0.0686885
0.360336 0.351104 -0.0748356
0.197503 0.304364 0.0615017
0.00577262 0.249674 0.214047
-0.000801537 0.246344 0.214875
0.000939552 0.248264 0.213523
0.190422 0.291109 0.0553181
0.440886 0.361094 -0.146757
-0.0233336 0.232109 0.226965
0.190001 0.289222 0.0553343
-0.0319581 0.225973 0.230696
0.203378 0.290327 0.037515
-0.0359827 0.220721 0.234418
0.204932 0.284654 0.0313234
-0.0635857 0.205133 0.244093
-0.0732777 0.195784 0.251982
0.177764 0.262624 0.0447438
0.175956 0.256038 0.0421478
0.181489 0.249659 0.0337792
-0.104887 0.164798 0.259818
0.369651 0.280464 -0.139911
0.358016 0.26868 -0.13944
0.342824 0.254424 -0.134204
0.322513 0.232249 -0.125917
-0.158935 0.0932788 0.263069
0.313438 0.215431 -0.132509
-0.170063 0.0833903 0.2629
0.306592 0.202281 -0.133391
0.306066 0.20157 -0.136668
-0.184041 0.0655444 0.263339
-0.181709 0.0684641 0.263485
0.299028 0.187025 -0.13858
0.127183 0.140997 -0.0030591
0.103416 0.124219 0.0149826
0.11033 0.12708 0.00610897
0.102254 0.121595 0.00998327
0.167255 0.137769 -0.0453718
0.182078 0.137192 -0.0562133
0.100488 0.119512 0.00648073
0.184586 0.134309 -0.0618423
0.169487 0.130387 -0.0566478
0.178067 0.130703 -0.0608996
0.186117 0.131627 -0.0667654
0.192969 0.131708 -0.072846
-0.205487 0.025211 0.250022
0.195521 0.130329 -0.0770143
0.0330152 0.081937 0.0493626
0.0352853 0.083868 0.0464519
0.186719 0.127785 -0.0744682
0.038344 0.0839626 0.0474324
0.288295 0.149166 -0.158864
-0.209675 0.0115863 0.247791
0.288082 0.147193 -0.163921
0.0151366 0.0680175 0.0611024
0.203588 0.121882 -0.0968403
0.20991 0.121439 -0.100731
0.279591 0.137672 -0.158587
0.0134369 0.064736 0.0586355
0.199813 0.120953 -0.0985945
0.218802 0.119275 -0.111144
0.237083 0.12276 -0.124445
0.204398 0.117189 -0.105673
0.227558 0.120627 -0.118137
0.250236 0.123894 -0.137402
0.260469 0.125917 -0.146346
0.278799 0.133842 -0.164555
-0.215181 -0.00121623 0.244864
0.21451 0.11337 -0.114371
0.241794 0.119525 -0.135248
0.244343 0.120989 -0.135896
0.272221 0.12999 -0.157579
0.278456 0.133386 -0.16456
0.238352 0.117221 -0.134278
0.260463 0.121977 -0.15243
0.0139261 0.051915 0.0482291
0.0208134 0.0565361 0.0404155
0.0284804 0.0586409 0.033365
0.0135584 0.0498605 0.0481056
0.0329018 0.0545865 0.0271775
0.209127 0.104258 -0.119178
0.21903 0.105624 -0.123183
0.233929 0.109838 -0.136027
0.267583 0.120432 -0.163391
0.269544 0.122076 -0.164428
-0.227139 -0.0157369 0.239703
0.022926 0.0500882 0.0353817
0.0376477 0.0551924 0.0210816
0.212473 0.0998637 -0.120773
0.258829 0.112409 -0.159939
0.0215321 0.0474379 0.0357169
0.0387749 0.0533857 0.0173667
0.224658 0.102021 -0.130378
0.237371 0.103219 -0.143776
0.250218 0.106153 -0.155139
0.260858 0.112181 -0.162607
0.190287 0.0895241 -0.108909
0.173879 0.0854632 -0.0994277
0.263235 0.107005 -0.171143
0.242504 0.0969239 -0.151839
0.0259696 0.035721 0.0188504
0.254851 0.0956437 -0.165911
0.256209 0.0972858 -0.167163
0.0236674 0.0323159 0.0192033
-0.239661 -0.0435336 0.238455
0.257064 0.0888299 -0.174663
0.0215274 0.0263188 0.016237
0.0175488 0.0171146 0.0153634
0.0157996 0.0106756 0.0134792
0.0977345 0.0310149 -0.0564737
0.104658 0.0378852 -0.0614035
0.0563066 -0.00629428 -0.0445902
0.0483383 -0.009418 -0.0393314
0.170684 0.0210612 -0.140345
0.1757 0.0210503 -0.142426
0.177112 0.0221387 -0.148333
-0.270752 -0.103547 0.218046
0.105163 -0.0129952 -0.100066
0.0975075 -0.0236055 -0.0985028
-0.280999 -0.160714 0.186661
0.0966962 -0.0878961 -0.149387
-0.289539 -0.199845 0.16116
0.100966 -0.0980798 -0.164737
-0.290856 -0.206586 0.158499
-0.292612 -0.215274 0.155453
-0.296088 -0.230168 0.142069
0.102526 -0.124065 -0.188275
-0.297242 -0.238798 0.136866
0.0845018 -0.166852 -0.207367
0.0782855 -0.186249 -0.211776
-0.297883 -0.296076 0.0958872
-0.298927 -0.302435 0.0849278
-0.296991 -0.309461 0.0788931
0.0559815 -0.231246 -0.222153
0.0505439 -0.239921 -0.225001
0.0477761 -0.246322 -0.225588
-0.281357 -0.357136 0.0291142
-0.276252 -0.371209 0.0111659
0.0174291 -0.293807 -0.230914
-0.272954 -0.379123 0.0010336
0.00885926 -0.304355 -0.232005
0.00521583 -0.308684 -0.232566
-0.264885 -0.400106 -0.0288971
-0.018319 -0.341231 -0.231129
-0.0213615 -0.344133 -0.230962
-0.259171 -0.412313 -0.041898
-0.0457094 -0.368059 -0.226717
-0.0944573 -0.401283 -0.199555
-0.105319 -0.405848 -0.19456
-0.212315 -0.435638 -0.106537
-0.12277 -0.416429 -0.181291
-0.184078 -0.435417 -0.136717
-0.181809 -0.434255 -0.142025
-0.172618 -0.433695 -0.148914
0.239394 0.357389 0.0553264
0.179822 0.340901 0.100115
0.218478 0.35354 0.066882
0.271773 0.35901 0.018913
0.135649 0.317108 0.12875
0.145707 0.324389 0.119439
0.0990924 0.299451 0.14938
0.103117 0.301075 0.146453
0.0665687 0.28619 0.177018
0.0931263 0.297389 0.153002
0.104536 0.303683 0.14181
0.309631 0.352608 -0.0262244
0.0540828 0.281132 0.185833
0.0685093 0.289207 0.169658
0.0714386 0.28948 0.168412
0.0293716 0.269626 0.200619
0.0446121 0.278909 0.188262
0.313518 0.352349 -0.0347426
0.429702 0.37876 -0.130996
0.439712 0.382161 -0.138706
0.0225722 0.265053 0.204401
0.323655 0.352318 -0.0462555
0.397977 0.369303 -0.108017
0.417857 0.376563 -0.125686
0.350442 0.351055 -0.0709378
0.355461 0.350206 -0.0711252
0.010801 0.258658 0.206713
0.0149147 0.261092 0.205787
0.360759 0.353558 -0.0801424
0.361736 0.354084 -0.0815217
0.00617516 0.252222 0.211599
0.199725 0.300452 0.0481899
0.18677 0.28454 0.0520726
-0.0312093 0.229985 0.227012
0.429081 0.352024 -0.151673
-0.0398418 0.222216 0.231943
-0.0537216 0.211996 0.239045
0.175432 0.261271 0.0421271
0.188038 0.256091 0.0217575
0.179895 0.249892 0.0272137
-0.126161 0.146941 0.257537
0.359957 0.270522 -0.147848
0.350882 0.261256 -0.141385
0.343583 0.254076 -0.142426
0.339309 0.250927 -0.136326
0.340189 0.251161 -0.140491
0.333389 0.2449 -0.137156
-0.147153 0.117496 0.256212
0.334783 0.245496 -0.142483
-0.151128 0.110129 0.257216
0.327619 0.23885 -0.134099
0.319662 0.226358 -0.13752
-0.165583 0.0952195 0.258395
0.313424 0.21421 -0.139688
-0.182158 0.0711819 0.261755
0.312236 0.20698 -0.147897
0.139434 0.154075 -0.00496773
0.137881 0.152265 -0.00517897
0.302501 0.19252 -0.144413
0.303454 0.191007 -0.14896
0.307222 0.194813 -0.15225
0.149529 0.149683 -0.0228988
0.153364 0.149549 -0.0250301
-0.19304 0.0510813 0.260464
0.148489 0.146629 -0.0263137
0.302193 0.185655 -0.152434
0.125629 0.138746 -0.00462362
0.130185 0.140378 -0.0136931
0.151782 0.142781 -0.0335669
0.152838 0.142497 -0.0343884
0.155471 0.140335 -0.0383343
0.298269 0.176152 -0.153485
0.106858 0.122223 -0.00270431
0.159194 0.136584 -0.0443865
0.298201 0.172993 -0.156699
0.301754 0.175972 -0.162178
0.301523 0.176264 -0.161283
0.0776054 0.109558 0.0216894
0.0802419 0.110789 0.0198937
0.102718 0.119773 -0.000283496
0.104846 0.120841 -0.00284374
0.300644 0.172929 -0.163383
0.0893412 0.113654 0.00790038
0.096204 0.116002 0.000437792
0.0652974 0.10299 0.0283826
0.168256 0.127914 -0.0666326
0.0192417 0.0736106 0.0560661
0.0301982 0.0809486 0.0453717
0.021492 0.0727884 0.0490352
0.0265615 0.0725286 0.0412134
0.284936 0.13996 -0.171467
0.0160266 0.0631585 0.0491592
0.281413 0.13435 -0.172672
0.0175839 0.0617794 0.0462087
0.0210465 0.0593931 0.0412055
0.271422 0.119796 -0.172017
0.271827 0.118908 -0.176501
0.196826 0.0944419 -0.117009
0.201274 0.100214 -0.119673
0.270139 0.116498 -0.17515
0.189959 0.090749 -0.112412
0.0315395 0.0412044 0.015848
0.0299461 0.0379335 0.0132553
0.149204 0.068759 -0.0866202
-0.242816 -0.0390779 0.232941
0.129699 0.0601488 -0.0768872
0.127481 0.0598832 -0.0761171
0.257798 0.0867953 -0.185581
0.0230869 0.0201474 0.00301428
0.0972628 0.0356527 -0.0630767
0.0992808 0.0358112 -0.063455
-0.255105 -0.0632802 0.228757
0.0180922 -0.00191787 -0.00356207
0.0767819 0.0165438 -0.0565339
0.0821838 0.0182537 -0.0585494
-0.26301 -0.0776976 0.222324
0.0221784 0.000307988 -0.0110767
0.0282599 -0.00804048 -0.0209421
0.037023 -0.00764722 -0.0303287
0.0573436 -0.00230933 -0.0458292
-0.270081 -0.0964163 0.219396
0.0412668 -0.0083915 -0.0340773
-0.270067 -0.0980276 0.219497
-0.273237 -0.0993649 0.214303
0.130388 0.00622741 -0.120063
0.197803 0.0165793 -0.181173
-0.276966 -0.115691 0.205547
-0.281577 -0.136496 0.19752
0.090406 -0.0434562 -0.116191
-0.283184 -0.160942 0.182732
-0.288512 -0.186513 0.16628
-0.28975 -0.189839 0.163718
0.0943547 -0.0840845 -0.154394
-0.294634 -0.204467 0.154456
-0.295094 -0.209022 0.1532
-0.299714 -0.227808 0.136178
-0.299656 -0.245573 0.131487
-0.303058 -0.250515 0.124561
-0.303719 -0.253069 0.122372
-0.304094 -0.264393 0.113878
-0.302923 -0.273616 0.10874
-0.301536 -0.291673 0.0920341
0.0717608 -0.196602 -0.216329
0.0708384 -0.200008 -0.216305
0.0576713 -0.21011 -0.223144
0.0605994 -0.217118 -0.220237
-0.29293 -0.323022 0.0599801
0.0441501 -0.24642 -0.228165
0.0418714 -0.25016 -0.228928
-0.284548 -0.356227 0.0223336
-0.282811 -0.36134 0.014745
0.0144503 -0.288213 -0.234206
0.00694894 -0.295609 -0.234952
-0.27525 -0.376895 -0.00209122
-0.272437 -0.382922 -0.00818544
-0.00592139 -0.311103 -0.23569
-0.268118 -0.394465 -0.0235882
-0.0181732 -0.3276 -0.235533
-0.0113441 -0.325125 -0.234225
-0.0152971 -0.331551 -0.233472
-0.0338507 -0.347508 -0.23239
-0.0373534 -0.349717 -0.232098
-0.259958 -0.413289 -0.0486221
-0.0481772 -0.362461 -0.228736
-0.0492624 -0.365568 -0.227758
-0.253378 -0.421231 -0.0627645
-0.0765392 -0.382001 -0.21751
-0.0703577 -0.383419 -0.217826
-0.228227 -0.431615 -0.0924679
-0.120973 -0.406999 -0.189908
-0.13439 -0.411812 -0.182935
-0.127365 -0.408765 -0.186825
-0.171106 -0.432759 -0.150793
-0.169633 -0.429931 -0.15432
0.188614 0.347095 0.0866259
0.195846 0.348441 0.0827831
0.201782 0.351127 0.0739541
0.168016 0.336405 0.102674
0.161327 0.333218 0.105817
0.139869 0.322539 0.12084
0.120968 0.313083 0.1297
0.289896 0.357025 -0.0104775
0.0530917 0.284046 0.180654
0.0553012 0.288018 0.17375
0.0650875 0.289885 0.168773
0.319414 0.353633 -0.0473487
0.322059 0.353517 -0.0494948
0.32344 0.35315 -0.0494938
0.396901 0.370513 -0.111397
0.402952 0.372726 -0.116443
0.413941 0.3774 -0.127923
0.41847 0.378477 -0.129958
0.0170325 0.268082 0.198504
0.450438 0.380342 -0.160874
0.344166 0.352588 -0.0712682
0.36543 0.357333 -0.0894608
0.368832 0.359247 -0.0944364
0.45062 0.381207 -0.163166
-0.0186033 0.241827 0.216452
0.435303 0.359639 -0.157741
-0.027586 0.235855 0.221601
-0.0372791 0.228687 0.226085
0.200046 0.291377 0.0353706
0.430525 0.355898 -0.160844
0.429419 0.354581 -0.160203
0.182686 0.282776 0.0467736
-0.050378 0.219567 0.231334
0.424791 0.350077 -0.161928
-0.0555695 0.214937 0.235084
-0.0575494 0.214405 0.235131
0.419474 0.34106 -0.151382
0.42031 0.344361 -0.158728
0.177671 0.27677 0.0411471
0.198552 0.275421 0.0195055
-0.0836667 0.194243 0.249411
0.188129 0.256652 0.0180946
0.392319 0.309724 -0.153295
0.184012 0.252986 0.0136242
0.376781 0.290382 -0.156286
-0.121462 0.154552 0.254219
0.371562 0.283308 -0.150943
0.374185 0.287078 -0.15587
-0.130166 0.144027 0.257925
0.356809 0.266471 -0.154244
0.341159 0.251544 -0.143963
0.34627 0.255476 -0.149798
0.340857 0.251164 -0.144493
0.325023 0.231947 -0.146218
-0.171787 0.0924379 0.256305
-0.168748 0.0923825 0.258276
0.32117 0.220744 -0.154333
0.13942 0.143194 -0.0234395
0.308423 0.188909 -0.161831
-0.199346 0.0474026 0.25397
0.144316 0.140955 -0.0319391
0.307195 0.183869 -0.165819
0.306345 0.180957 -0.168124
-0.202274 0.0427941 0.251364
0.11797 0.129689 -0.0133597
0.30463 0.176454 -0.170401
0.305887 0.179687 -0.168864
0.110885 0.123996 -0.0120298
0.30205 0.173942 -0.165781
0.306124 0.178757 -0.173441
0.0775392 0.10951 0.0144139
0.155655 0.132132 -0.0508991
0.302942 0.172298 -0.172487
0.30493 0.175825 -0.175253
0.0548403 0.0986054 0.0318456
0.163348 0.128874 -0.0599902
-0.215833 0.0205034 0.24177
0.193209 0.12407 -0.0923304
0.190522 0.124554 -0.0925933
0.0374367 0.082361 0.0292353
-0.225834 -0.00432016 0.237246
-0.226316 -0.00636417 0.237359
0.274057 0.122663 -0.18385
0.0404923 0.0560509 0.00900859
0.271922 0.118946 -0.18193
0.0398921 0.0538836 0.00915915
0.0390182 0.0520369 0.0030778
-0.237795 -0.0265266 0.23248
0.263943 0.102651 -0.183981
0.142087 0.0681021 -0.0861641
-0.245548 -0.0372956 0.228168
0.0323814 0.0365431 0.0009756
0.261788 0.0978743 -0.188254
0.0284893 0.0292631 0.0012988
0.0283481 0.0259886 -0.00243548
0.0976904 0.0461913 -0.0625713
0.10925 0.0506626 -0.0665738
0.256436 0.0869059 -0.19384
-0.25283 -0.048391 0.223913
0.0934971 0.0404222 -0.0610937
0.0842231 0.0311698 -0.0580355
0.249939 0.0716115 -0.194147
0.0707175 0.0228392 -0.0528613
0.0280394 0.00609513 -0.0176227
0.0329118 0.00621154 -0.0241216
0.0640416 0.0134505 -0.050865
0.06121 0.0132278 -0.0492086
0.0695136 0.0152699 -0.0535529
0.0352294 0.00102548 -0.0282458
0.0459798 0.00631876 -0.0379603
0.0626419 0.00898369 -0.0500766
0.0483164 0.00279824 -0.0402494
0.234341 0.045926 -0.200005
0.156189 0.02183 -0.142072
0.23123 0.0428069 -0.201457
0.176729 0.0221834 -0.159731
-0.275158 -0.103441 0.210392
0.126502 0.00724193 -0.123949
-0.277319 -0.110392 0.205461
0.188474 0.0181134 -0.180168
0.197853 0.0134309 -0.188641
0.19976 0.010425 -0.194236
0.0915278 -0.0242814 -0.108867
-0.285602 -0.135385 0.191543
0.0916851 -0.0514488 -0.126596
-0.286827 -0.154708 0.180195
-0.287815 -0.164173 0.174519
0.0908982 -0.0622162 -0.138048
0.0934876 -0.0829573 -0.156336
0.0936596 -0.0845629 -0.159784
0.0949083 -0.0884906 -0.165728
0.0965178 -0.0916544 -0.168109
0.097716 -0.0933334 -0.16788
0.0966948 -0.0930828 -0.172371
-0.299565 -0.213464 0.145319
0.101753 -0.10818 -0.187169
-0.302011 -0.231768 0.130886
-0.306079 -0.255882 0.11582
-0.306075 -0.275626 0.0992394
0.036938 -0.25182 -0.231918
0.0262497 -0.26613 -0.23626
0.00828264 -0.29272 -0.235265
-0.273829 -0.384088 -0.01622
-0.274884 -0.383775 -0.019475
-0.235731 -0.42602 -0.094196
-0.126098 -0.405317 -0.189752
-0.111526 -0.399782 -0.198196
-0.19131 -0.429765 -0.138971
0.205751 0.353174 0.0673673
0.214143 0.354891 0.0621041
0.224855 0.357481 0.054123
0.180172 0.346686 0.0864006
0.196846 0.352031 0.0707022
0.156483 0.332747 0.104737
0.260101 0.360255 0.0204218
0.140163 0.326365 0.113506
0.150553 0.330677 0.107568
0.138969 0.327067 0.11183
0.269442 0.360655 0.00292819
0.127099 0.318178 0.123284
0.0872593 0.300378 0.147552
0.302016 0.354767 -0.0269486
0.0677709 0.293902 0.159488
0.315072 0.353561 -0.0426882
0.31111 0.354727 -0.0434309
0.443203 0.388499 -0.149778
0.314043 0.355735 -0.0498777
0.395503 0.371167 -0.113619
-0.0124284 0.248371 0.210044
-0.0231819 0.243313 0.213731
0.436783 0.362303 -0.162151
0.192861 0.29392 0.0342325
0.193058 0.290367 0.0269066
-0.0521037 0.220123 0.230117
0.179509 0.282718 0.0423759
-0.0571276 0.219003 0.229727
-0.0555995 0.219374 0.229812
0.176683 0.281549 0.0387868
0.176472 0.2797 0.0389489
-0.0615317 0.214551 0.233547
0.195118 0.279928 0.0187503
0.409489 0.332054 -0.159495
0.166825 0.257924 0.0315068
0.184651 0.253538 0.0114304
0.168087 0.246043 0.0190895
-0.125195 0.153461 0.253165
0.356818 0.265482 -0.162937
0.354736 0.262782 -0.162928
-0.15977 0.112344 0.252034
0.326816 0.231451 -0.15573
-0.183757 0.0794735 0.25542
0.317351 0.206557 -0.167243
-0.196963 0.0633833 0.252938
-0.196191 0.0631921 0.253781
-0.197781 0.0569287 0.254311
0.118053 0.128817 -0.0174175
0.129845 0.133609 -0.0282647
0.134689 0.132924 -0.0354861
0.132785 0.131799 -0.034939
-0.208343 0.037437 0.246446
0.121027 0.1271 -0.0266399
0.142165 0.132849 -0.043275
0.139962 0.131997 -0.0426347
0.305658 0.177412 -0.17897
0.0846303 0.110794 0.00327582
0.0949768 0.113922 -0.00728257
-0.211948 0.0321353 0.243903
0.0563324 0.100249 0.0211981
0.0591847 0.10147 0.0188242
0.0631699 0.102986 0.0156817
0.156873 0.129022 -0.0618142
0.0799351 0.107964 0.000258813
